# .PCD v0.7 - Point Cloud Data file format
VERSION 0.7
FIELDS x y z
SIZE 4 4 4
TYPE F F F
COUNT 1 1 1
WIDTH 1410
HEIGHT 1
VIEWPOINT 0 0 0 1 0 0 0
POINTS 1410
DATA ascii
-0.53533983 -0.46279469 0.70656168
-0.5433315 -0.45147166 0.70778608
0.54214293 -0.45489767 0.70650482
-0.56453991 -0.43132481 0.70374149
-0.55891204 -0.43339562 0.70695454
0.56019574 -0.43834642 0.70287406
-0.56488752 -0.42419085 0.70778799
0.56588042 -0.42687485 0.70537704
0.57109571 -0.42404896 0.70287377
-0.57435018 -0.41352791 0.70648068
0.57186866 -0.41418219 0.70810968
0.58159775 -0.41176534 0.70156425
-0.59055239 -0.40104526 0.70029122
-0.58713925 -0.406232 0.70017242
-0.59891814 -0.38301769 0.70327121
-0.60667479 -0.37443215 0.7012437
-0.59740287 -0.37924239 0.70659822
0.60313743 -0.37384233 0.70459968
0.60813856 -0.3680563 0.70334584
-0.61371946 -0.35277477 0.70632416
0.61430675 -0.35198975 0.70620477
-0.62035102 -0.34964037 0.70207745
0.61972803 -0.34113187 0.70679677
-0.62634647 -0.33153614 0.70552933
0.62591958 -0.33916181 0.70227492
-0.63032228 -0.32623577 0.70445853
-0.62798929 -0.32566777 0.70680076
-0.63758147 -0.30582708 0.7070775
0.6412158 -0.29738516 0.70739144
-0.64719784 -0.28253618 0.70802987
-0.65805715 -0.27666855 0.70029527
0.65690476 -0.27920556 0.70036954
0.65736932 -0.26314381 0.7061277
-0.65948176 -0.25584802 0.70684069
0.66201371 -0.24249902 0.70917428
0.67034197 -0.24177274 0.70155817
-0.66595548 -0.23510422 0.70797247
0.66811657 -0.22589295 0.70893705
-0.67819077 -0.21825404 0.70172298
-0.66970199 -0.21830487 0.70981616
0.67240608 -0.21864645 0.70715165
0.67548048 -0.20281608 0.70893556
0.68178582 -0.20732392 0.70155811
-0.68049687 -0.19224775 0.70708036
0.67986554 -0.18441699 0.70976776
-0.6920259 -0.17131023 0.70125067
0.69254237 -0.1533509 0.70488894
-0.69324422 -0.14477322 0.70601076
0.69278407 -0.14548859 0.70631683
-0.6977551 -0.13554928 0.70339274
0.70136201 -0.13004301 0.70084232
-0.70179677 -0.11855016 0.70244157
-0.69873452 -0.11897752 0.70541638
0.70252055 -0.11881338 0.70167488
0.69731075 -0.10805117 0.70857549
0.70283085 -0.10648154 0.70334029
-0.70023525 -0.095022574 0.70755941
0.70035201 -0.093662806 0.70762283
-0.70402592 -0.086044066 0.70494163
-0.70546281 -0.063435979 0.70589989
0.7030369 -0.063862927 0.70827854
-0.70202607 -0.056050811 0.70993948
0.71110952 -0.044468816 0.70167267
0.70674592 -0.035970397 0.70655209
-0.71089083 -0.026512817 0.70280093
-0.70900095 -0.024951113 0.70476449
0.70639038 -0.027994566 0.70726794
-0.70952791 -0.011256855 0.70458674
0.70687383 -0.010258398 0.7072649
-0.70479119 -0.0097864056 0.70934671
0.70533872 -0.0090845926 0.70881188
-0.71032536 0.00022381506 0.70387334
-0.70520616 0.0040279743 0.70898992
-0.71127993 0.017740263 0.70268279
-0.70842773 0.018504016 0.70553899
0.70497078 0.02452247 0.70881003
0.71348864 0.024321748 0.7002421
-0.70760918 0.034116659 0.70577657
-0.70512867 0.04712287 0.70750797
0.70636028 0.044647068 0.70644003
0.71122169 0.044573192 0.7015503
-0.70889139 0.053549729 0.70327783
0.70694447 0.054943878 0.70512801
0.70860332 0.066088267 0.70250106
-0.70263302 0.074812077 0.70760393
0.70569927 0.072686881 0.70476919
-0.70885748 0.08367423 0.7003665
-0.70070928 0.095017701 0.70708644
-0.70449209 0.1044654 0.70197684
-0.70316899 0.11524937 0.70161635
0.70093244 0.1252427 0.70214391
-0.69432485 0.13945772 0.70601833
0.69499147 0.13078424 0.70702308
-0.6944412 0.14438452 0.70491314
0.69150877 0.14111215 0.70845085
0.68777996 0.15341912 0.70952141
-0.69129151 0.16072668 0.70447189
-0.68718135 0.16522254 0.70744711
0.68665594 0.16412878 0.70821196
-0.68967158 0.17583114 0.70244992
0.68531048 0.17437141 0.70706677
-0.67915702 0.18813588 0.70947075
0.68295717 0.18491326 0.70666391
0.68681747 0.19177179 0.70107174
-0.68001074 0.20115376 0.70506841
0.67731541 0.20379047 0.70690066
-0.67528087 0.21376775 0.70590127
0.67676872 0.21339136 0.70458776
0.68120289 0.21399391 0.70011759
-0.67493457 0.2291871 0.70137936
0.66679209 0.22944269 0.70904237
0.67241889 0.22693491 0.70451999
-0.67309391 0.23540604 0.70108753
-0.66643804 0.23530813 0.70745021
0.66282129 0.2389158 0.7096377
-0.66212016 0.24856085 0.70697272
-0.65898144 0.25643867 0.70709217
0.66511095 0.25255692 0.70273817
-0.66097552 0.26363263 0.70257151
0.65944707 0.26353323 0.7040441
0.64794093 0.27887112 0.70880401
-0.65026271 0.2884708 0.70280987
0.64988577 0.28921175 0.70285308
-0.65135992 0.29205054 0.70031101
-0.64105058 0.2961821 0.7080462
0.64560485 0.29920438 0.70261407
0.64275873 0.30472225 0.70285177
0.63555586 0.31423646 0.70520765
-0.62246239 0.32991865 0.70971286
0.63107878 0.33152285 0.70130408
-0.62151247 0.34349623 0.70408082
-0.61787069 0.34374559 0.70715791
0.62558311 0.34178033 0.70130515
-0.61703438 0.35364372 0.70299453
0.61623335 0.35366613 0.70368594
-0.60445714 0.36609301 0.70753294
0.59929568 0.37411121 0.70772785
0.60500729 0.3749983 0.70237839
-0.59491849 0.38753757 0.70418972
0.58765501 0.39588004 0.70564729
-0.57933617 0.40419033 0.70781034
0.58484298 0.40800184 0.70106506
-0.57373071 0.41757637 0.70459723
0.57238132 0.41208458 0.70891911
-0.56662369 0.42971152 0.70305091
0.56331933 0.42557871 0.70820427
-0.5670411 0.43270466 0.70087546
-0.55656868 0.43789735 0.70602679
0.56209791 0.43747622 0.70189703
-0.54517913 0.44919863 0.70781302
0.5558964 0.44495457 0.70213455
-0.54915982 0.45311046 0.70221996
-0.53866041 0.45625594 0.70828873
0.54345065 0.45123577 0.70784616
0.52186489 0.47902885 0.70582247
0.51141232 0.48793867 0.70736808
0.5210408 0.48685321 0.70106161
-0.51152295 0.49215075 0.70436388
0.49907213 0.49785262 0.70927173
0.504291 0.49588108 0.70695794
-0.50221688 0.50711346 0.70043635
-0.49654368 0.50526071 0.70580041
-0.48984677 0.50780493 0.70864737
0.49146602 0.50719523 0.70796245
0.48572615 0.51153988 0.70879662
0.47456804 0.52719408 0.70487291
-0.46415582 0.53938609 0.70257908
0.46311843 0.53798556 0.70433503
-0.45326155 0.54581827 0.70472175
-0.44636059 0.54749501 0.70782089
0.44673145 0.54992402 0.70570058
0.45020834 0.54228872 0.70938945
-0.42870378 0.5681172 0.70246166
0.41701466 0.56984252 0.7080794
0.42738652 0.56127888 0.70873588
0.4308995 0.56360918 0.70474857
-0.40910569 0.57849127 0.7056756
0.41999331 0.57163548 0.70486653
0.4267222 0.57162672 0.70082098
-0.40501148 0.58212847 0.70504636
-0.39119607 0.58932495 0.70686638
-0.38987994 0.58704698 0.70948452
-0.39210641 0.59283835 0.70341527
-0.3884629 0.59789306 0.70115411
0.39011109 0.59581393 0.70200956
0.35837132 0.60732567 0.7090289
-0.36203283 0.61534113 0.700203
-0.33707181 0.6183331 0.70996267
0.34889299 0.61515301 0.70700562
0.35740483 0.61666727 0.70141309
-0.33398852 0.62901592 0.70198947
-0.32251221 0.62967479 0.70675027
0.32288852 0.62892586 0.7072432
-0.33255166 0.6305716 0.70127541
-0.3239505 0.63542718 0.70091885
-0.31347305 0.63554597 0.70556015
0.31745359 0.63690859 0.7025432
0.3315616 0.63074076 0.70159221
-0.30143374 0.64369154 0.70341825
-0.29001296 0.64371896 0.70817852
-0.28575158 0.64509928 0.70865458
0.28477091 0.64780909 0.70656896
0.29471216 0.64754504 0.70272458
-0.25550732 0.65919971 0.70722795
0.26560059 0.65568733 0.70677114
0.27290875 0.65792996 0.70188564
-0.24713759 0.66289067 0.70675224
0.22779614 0.66636246 0.70997769
0.25211433 0.66742808 0.70069575
0.26387009 0.66021627 0.70319498
-0.23406854 0.67150098 0.70306402
-0.22450788 0.67661214 0.70127922
-0.21525311 0.67850488 0.70235026
0.19388346 0.67899889 0.70807201
0.22570267 0.67247701 0.70486206
-0.19983171 0.68259239 0.70294422
-0.18583111 0.68452924 0.70489824
-0.16751209 0.68648195 0.70758605
0.17544632 0.68533415 0.70677161
0.20275056 0.6825788 0.70212305
-0.14292401 0.69798821 0.70169991
-0.08836522 0.69975168 0.70889884
0.1128655 0.69959044 0.70557034
0.12698667 0.69353509 0.70914221
0.14269164 0.69653189 0.70319152
-0.11558793 0.70273763 0.70199555
-0.094524547 0.70540494 0.70247179
-0.087218806 0.70515978 0.70366198
-0.077786773 0.70697278 0.70294815
-0.066359252 0.70230043 0.70877951
-0.055472452 0.7080096 0.70402056
-0.042372886 0.70891416 0.70402122
-0.030350372 0.70811027 0.70544928
-0.029470138 0.70933068 0.70425916
0.0096256053 0.70607829 0.70806831
0.034391627 0.70338756 0.70997185
0.048685491 0.70386267 0.70866305
0.055043492 0.70559585 0.70647025
0.080670163 0.70067596 0.708902
0.09682323 0.70603371 0.70152348
-0.029545199 0.71273738 0.70080835
-0.035824973 -0.70120841 0.71205521
0.0075444537 -0.70063156 0.71348113
-0.12942201 -0.69008768 0.71205634
-0.11650427 -0.69177049 0.71265441
-0.10394921 -0.69487065 0.7115804
-0.093879662 -0.69605672 0.71182048
-0.085227609 -0.69215411 0.71669537
-0.07516259 -0.6945473 0.71550483
-0.054344889 -0.69525552 0.71670079
-0.042343922 -0.69388521 0.71883744
-0.037833001 -0.69476163 0.71824247
-0.015319251 -0.69635957 0.71752805
-0.0036750843 -0.6991396 0.71497387
0.057236686 -0.69540107 0.71633482
0.065526955 -0.69662356 0.71443439
0.074683242 -0.6985659 0.71163446
0.097775102 -0.69442916 0.71288627
0.1029708 -0.69635993 0.71026605
-0.17132565 -0.68300331 0.71003431
-0.15730737 -0.68377328 0.71253288
-0.1431849 -0.68139642 0.71776831
-0.13651083 -0.68735737 0.71337169
-0.12863782 -0.68961996 0.71265131
-0.10454953 -0.68701845 0.71907711
0.082319997 -0.68941921 0.71966636
0.10724992 -0.68729073 0.71842027
0.12234611 -0.6838299 0.71930915
0.14972168 -0.68597907 0.71205014
0.15257959 -0.68168139 0.7155627
0.16236617 -0.68396407 0.71121669
0.17262979 -0.68157065 0.71109766
-0.20404732 -0.67093027 0.71289259
-0.17562473 -0.6757102 0.71593636
-0.15529075 -0.67886525 0.71764958
0.19444466 -0.67119068 0.71532577
0.20513028 -0.67363441 0.71002489
-0.22749504 -0.66640061 0.71003592
0.20785999 -0.66748291 0.71502239
0.22618322 -0.66431773 0.71240395
0.24041007 -0.66071498 0.71109492
-0.244819 -0.65480328 0.71504426
-0.23870338 -0.65745783 0.71467632
0.2357126 -0.65712184 0.7159797
0.24156889 -0.65875095 0.7125228
0.26642075 -0.64896917 0.71264201
0.27126589 -0.64485544 0.71454591
0.28279591 -0.64411056 0.71073771
-0.29043546 -0.63896322 0.71229976
-0.26958832 -0.6398313 0.71967667
0.28763372 -0.63772374 0.71454531
0.29976058 -0.63090205 0.71561617
-0.31284389 -0.62485951 0.71531683
-0.30237606 -0.62698323 0.71795475
-0.29449093 -0.62943846 0.71908289
0.31716505 -0.62736183 0.71121264
0.32481736 -0.620709 0.71359235
-0.34243035 -0.61225522 0.71265769
-0.32675433 -0.61442345 0.71813196
-0.31868351 -0.61740315 0.71920294
0.34951442 -0.60812289 0.71275759
-0.3742339 -0.59215039 0.7136516
0.35500857 -0.59927833 0.71751684
0.36690238 -0.59593749 0.7143088
0.37852609 -0.59093177 0.71239865
-0.38663629 -0.58067489 0.7164672
-0.37907723 -0.58607334 0.71610904
0.38550267 -0.58640462 0.71239841
0.39034751 -0.58275467 0.71275526
-0.40594524 -0.57078451 0.71373224
0.39359459 -0.5763005 0.71620911
-0.40410209 -0.56655401 0.71813512
0.41803011 -0.56473213 0.71156609
0.42604104 -0.55749959 0.71251726
-0.43387055 -0.54698193 0.71593624
-0.42567411 -0.54944009 0.71896815
0.4347145 -0.54770511 0.71487087
-0.45096284 -0.53242093 0.71635127
-0.44477728 -0.53409266 0.71896875
0.45459989 -0.53359294 0.71317041
-0.45519921 -0.52976948 0.71563756
0.45737663 -0.52621925 0.71686393
0.46115059 -0.52721906 0.71370488
0.47450557 -0.52014261 0.71013492
-0.48242396 -0.51276964 0.71016455
-0.4799315 -0.51213706 0.71230638
0.4782269 -0.51656026 0.71025407
0.4769389 -0.50527859 0.7191779
-0.49564311 -0.49351755 0.71468711
-0.4885672 -0.4945235 0.71885204
0.48937351 -0.49342093 0.71905971
0.49319053 -0.48995543 0.7188217
-0.50876147 -0.47516304 0.71790087
0.50815725 -0.47315255 0.71965498
0.51918489 -0.47323966 0.71168154
-0.52551359 -0.46451333 0.71278375
0.51667613 -0.46878278 0.71644175
0.52784914 -0.45821542 0.71513242
0.53507942 -0.45463383 0.71203822
-0.53736556 -0.44695929 0.71516639
-0.54739094 -0.43929273 0.71230918
0.53824788 -0.43842494 0.7197724
0.54370779 -0.43889451 0.7153697
0.55312735 -0.43269166 0.71191812
0.56168681 -0.4213205 0.71203673
0.55353385 -0.41896161 0.71977204
-0.57175297 -0.4027712 0.7147519
0.57200247 -0.40280569 0.71453536
-0.58170438 -0.39250344 0.71243042
-0.58492273 -0.38648173 0.71308708
0.58252692 -0.38189334 0.71750981
-0.5952366 -0.37257427 0.71195292
-0.58877832 -0.37141687 0.71790248
0.59926993 -0.36820191 0.7108438
-0.60694546 -0.35389391 0.7115978
-0.61417741 -0.33531818 0.71438396
0.61643243 -0.33004829 0.71489674
0.61562967 -0.32716206 0.71691221
0.6240623 -0.32126927 0.71227086
-0.62544912 -0.31579265 0.71350241
-0.63446248 -0.30458912 0.71040934
-0.62451434 -0.30866525 0.71742964
0.62555319 -0.30497628 0.71810085
-0.64406437 -0.28282443 0.71076667
-0.63381928 -0.28580511 0.71873921
0.63638377 -0.28469554 0.7169103
-0.64125228 -0.27312768 0.71707386
0.63970202 -0.27623314 0.71726698
0.64708364 -0.27410632 0.71143812
-0.65235126 -0.26410872 0.71041054
-0.64295733 -0.26523671 0.71850753
0.64274782 -0.26263994 0.71964622
0.65196818 -0.25689286 0.71340001
-0.65651095 -0.24019223 0.71505189
0.65619892 -0.2452476 0.71361947
-0.65732867 -0.23029976 0.71755135
-0.66617781 -0.22435373 0.71124542
-0.65563315 -0.22993606 0.71921736
0.65612638 -0.22641438 0.71988457
0.66146106 -0.22540373 0.71530503
0.66934991 -0.21779923 0.71030515
0.66421235 -0.20336503 0.71934897
0.67163551 -0.20515124 0.71191072
-0.67344064 -0.19811895 0.71219724
-0.66813815 -0.19324143 0.71850479
0.67601812 -0.18705022 0.71274722
-0.68058223 -0.17050439 0.71255511
-0.67385876 -0.17023328 0.71898091
0.67391187 -0.17589371 0.71756601
-0.68131614 -0.16291416 0.71362925
0.67565662 -0.16369575 0.71881145
0.68200004 -0.16951588 0.71143335
-0.68410957 -0.14676638 0.71445996
0.6833328 -0.14125374 0.71631253
-0.6873759 -0.13061309 0.71446019
0.68474483 -0.13768536 0.71565819
-0.6904518 -0.12120271 0.71315157
-0.68595725 -0.1242213 0.71695948
0.68465364 -0.1288804 0.71738279
-0.68623418 -0.11288393 0.71856785
0.69164765 -0.10721201 0.71423072
-0.69729859 -0.096191823 0.71029639
0.69503683 -0.091687143 0.71310061
-0.69949484 -0.071891434 0.71101028
0.69775927 -0.073926583 0.7125048
-0.69299001 -0.06205003 0.71826887
-0.69473636 -0.055143297 0.71714389
0.69493359 -0.052587349 0.71714622
-0.69746041 -0.042513266 0.7153576
0.69837093 -0.043601364 0.71440506
0.702317 -0.040389694 0.71071613
-0.69393009 -0.03430035 0.71922135
0.69588345 -0.035788544 0.71726072
-0.70075798 -0.022736911 0.71303457
-0.69683582 -0.026735622 0.71672964
-0.70080549 -0.010543443 0.71327341
-0.69591105 -0.015458618 0.71795976
0.69635928 -0.016631702 0.71750021
-0.70362699 -0.0067487573 0.71053666
-0.697106 -0.0025077141 0.71696246
-0.69762427 0.006952879 0.71642888
-0.69941252 0.013835504 0.7145828
0.6992923 0.010300866 0.71476126
0.70402342 0.015747206 0.71000057
0.70055437 0.025080236 0.71315652
-0.69663614 0.032788511 0.71667296
0.69570357 0.034527022 0.71749669
-0.69494426 0.048267961 0.71743917
-0.6944499 0.053343311 0.71755815
0.69899321 0.05693768 0.71285433
0.70028478 0.055944581 0.71166438
-0.70127881 0.060647503 0.71029907
-0.69756651 0.069320515 0.71315521
0.69629949 0.064130872 0.71487725
0.70041478 0.065590099 0.71071202
0.69164723 0.075001217 0.71832848
-0.69794559 0.083588831 0.71125114
-0.69327807 0.092003502 0.71476871
-0.69270468 0.10710164 0.71322024
0.68820125 0.10355794 0.71809053
-0.69219244 0.11453322 0.71256334
-0.68959785 0.11536156 0.7149415
0.68484634 0.11448829 0.71963763
-0.68864477 0.12021511 0.71506077
-0.68275344 0.13889718 0.71732277
0.68917954 0.1331123 0.71225941
-0.68559545 0.14203051 0.71399093
0.68401724 0.14398433 0.71511489
-0.68249679 0.15649408 0.71393627
-0.67950302 0.16978991 0.71375412
0.68015695 0.16017736 0.71535176
0.67483473 0.17433587 0.7170788
0.68093276 0.17034592 0.71225721
-0.67385674 0.18668288 0.71488762
0.6791693 0.18196207 0.71106672
-0.67160296 0.19222397 0.71553957
0.66961241 0.1918873 0.71749204
0.66786665 0.20318602 0.71600682
-0.66564798 0.21666545 0.71411824
0.66421419 0.21582437 0.71570647
0.66483164 0.22589135 0.71201742
-0.66400516 0.23285748 0.71054208
-0.65800864 0.23053865 0.71684921
0.66244417 0.2385471 0.7101137
-0.65043962 0.24594611 0.71863508
0.65870667 0.24107669 0.71273166
-0.64554375 0.26114166 0.71768862
0.64047456 0.26721898 0.71998972
-0.64320183 0.27994192 0.71268618
-0.63576061 0.2789762 0.71970707
0.64328825 0.27518559 0.71445966
-0.64219928 0.28462291 0.71173555
-0.63431311 0.29546085 0.71438664
-0.62667781 0.30976206 0.71506768
0.63311821 0.30362743 0.71201503
0.61963224 0.31928656 0.71701115
0.62530059 0.31564909 0.71369272
-0.60887873 0.33512875 0.71899521
0.60966009 0.33591479 0.7179637
0.61485076 0.33329496 0.71475071
0.60645139 0.34441128 0.71665448
0.60249114 0.35371092 0.71546423
-0.60206401 0.36373112 0.71078384
-0.59645349 0.36269671 0.71602392
0.59288645 0.3616443 0.71950936
0.58851177 0.37898877 0.71415383
0.59258497 0.37563407 0.71255577
-0.58097601 0.38357845 0.7178666
-0.58188683 0.3911131 0.71304625
-0.57636482 0.39664477 0.7144748
0.57735813 0.39188573 0.71629649
0.58105206 0.39011422 0.71427357
-0.57243484 0.40386742 0.71358722
0.56810862 0.40664968 0.71546394
0.5748173 0.40473145 0.71117997
0.55636537 0.41912869 0.71748781
-0.56104505 0.42267215 0.71173966
-0.54360342 0.43619484 0.71709645
0.55186319 0.43238789 0.71308303
0.54379535 0.44497547 0.71153551
-0.52808601 0.45970234 0.71400148
0.52546602 0.46171695 0.71463317
0.50970739 0.47585398 0.7167694
0.51633263 0.47834051 0.71034354
-0.51044494 0.4820385 0.71209824
-0.49985498 0.48972863 0.71435928
0.49338683 0.48910129 0.71926761
0.50429922 0.48491913 0.71451521
-0.48466316 0.4974454 0.71947557
0.493325 0.49677569 0.71403164
0.50363034 0.49204087 0.71010506
-0.48406056 0.50852501 0.7120983
-0.47991449 0.50861418 0.71483499
0.47631687 0.50860572 0.71724379
0.48726699 0.50397593 0.71314514
-0.47277194 0.51318896 0.71632361
0.46485186 0.51836425 0.71777946
0.47712868 0.51598072 0.71141267
-0.46639946 0.52298641 0.71340883
-0.45187494 0.53527057 0.71364665
-0.44812429 0.53284955 0.71781194
0.45138848 0.53958654 0.71069813
-0.44686007 0.54166102 0.71198112
0.43771449 0.54780877 0.71295977
-0.41911131 0.55572081 0.7179932
-0.42070162 0.56070685 0.71317095
-0.41292602 0.56780297 0.71210027
0.41791004 0.56403941 0.71218646
0.42398384 0.56152886 0.71057916
-0.39398786 0.57758695 0.71495783
0.38739565 0.5766983 0.71926558
0.39750195 0.57750499 0.71307683
0.40171754 0.57131594 0.71569484
-0.39758772 0.58054596 0.71055496
-0.38425046 0.58171886 0.71690536
-0.37740993 0.58484662 0.71799386
0.38486511 0.58701485 0.71224326
-0.3724719 0.59383988 0.71317351
-0.36431032 0.59809834 0.71383041
-0.3598457 0.59516853 0.71852905
0.37515014 0.59569114 0.71021998
-0.35465902 0.60041046 0.71674401
-0.34968635 0.60683686 0.71376956
0.33627173 0.60821187 0.71902394
0.34661555 0.60758424 0.71462941
-0.33752787 0.61492634 0.71269941
0.31346592 0.61930782 0.71985644
0.33547518 0.61478406 0.71378821
-0.32252729 0.62046593 0.71484244
-0.31469047 0.62036628 0.7184121
-0.30367553 0.62501067 0.71912622
-0.29957071 0.62616843 0.71984017
0.3044326 0.626526 0.71748257
0.31317663 0.62620479 0.71399164
0.32502595 0.62377894 0.71081322
-0.29444262 0.63667798 0.71270174
0.30577126 0.63143063 0.71259665
-0.28455031 0.64036667 0.71341467
-0.27745414 0.6447227 0.71228534
-0.25911957 0.64621216 0.71782017
0.252859 0.64642704 0.71985447
0.26284662 0.64534724 0.71724021
0.27427158 0.64757061 0.71092898
-0.24572486 0.65116268 0.71805668
-0.22985186 0.65771276 0.71734339
-0.2165726 0.65974629 0.71960485
0.2449258 0.65301859 0.71664184
0.2561231 0.65210235 0.7135548
-0.22681358 0.66582334 0.71079886
-0.2172296 0.66250408 0.71686792
-0.20650752 0.6664353 0.71639162
-0.19918421 0.66622961 0.71865267
0.19605915 0.66624469 0.71949542
0.20342299 0.66851836 0.71533138
0.21859795 0.66010195 0.71866411
0.22372492 0.66311127 0.71430337
0.23851588 0.66170651 0.71081042
0.24027066 0.66017473 0.7116437
-0.1914975 0.676135 0.71145356
-0.15914436 0.67615128 0.71936744
0.20170598 0.6728341 0.71176237
0.21359615 0.67067152 0.7103343
-0.16077489 0.68514156 0.71044207
-0.14370376 0.6839776 0.71520728
-0.11754828 0.68772137 0.71639442
-0.10203385 0.68901819 0.71752566
0.079679243 0.68953961 0.71985042
0.082370974 0.68972039 0.7193749
0.099213026 0.68973333 0.71723312
0.12278441 0.68803394 0.71521479
0.14249152 0.68397921 0.71544969
0.15434967 0.68027329 0.71651977
0.17139553 0.68043965 0.71247286
-0.12727699 0.69214725 0.71044368
-0.11124805 0.69148129 0.71377701
-0.10689285 0.69069189 0.71520549
-0.094337687 0.69582105 0.71199226
-0.077293694 0.69462007 0.71521032
-0.050649181 0.69999361 0.71235049
-0.037945662 0.69641596 0.71663541
-0.013756082 0.69584125 0.71806318
-0.0073372787 0.69740856 0.71663523
0.0059747794 0.69649762 0.71753275
0.027297849 0.69813234 0.71544522
0.030827699 0.69492257 0.71841991
0.044830948 0.6935429 0.71901494
0.061311588 0.69931662 0.71217406
0.076010369 0.69057375 0.71925509
0.084583566 0.69572783 0.71330678
0.093456835 0.69593388 0.7119965
0.10340749 0.69170779 0.71473372
-0.0051080617 0.70083565 0.71330315
0.032226827 0.70144254 0.71199471
-0.053829633 -0.69110698 0.72074032
-0.044513594 -0.69239014 0.72014618
0.00047158136 -0.69053286 0.72329873
0.020258538 -0.69266003 0.72097784
-0.11635339 -0.68235338 0.72170019
-0.103719 -0.68061 0.72526509
-0.098578505 -0.68615472 0.72074258
-0.064270183 -0.685067 0.72563338
-0.05439299 -0.68794703 0.72371572
-0.048933342 -0.68622434 0.72573888
-0.03532543 -0.68541765 0.72729039
0.0077635762 -0.68679392 0.72680926
0.032107387 -0.68934977 0.72371393
0.04526899 -0.68281049 0.72918624
0.062437154 -0.68495399 0.72590071
0.084246151 -0.6879397 0.72085845
0.099386893 -0.68479222 0.72192794
-0.16179036 -0.67072856 0.72383744
-0.13188973 -0.67436731 0.72651935
-0.11557119 -0.67498887 0.72871715
0.11077645 -0.6770826 0.72752064
0.1235321 -0.67755544 0.7250216
0.13491876 -0.67499781 0.72537798
0.15637872 -0.67048144 0.72525907
-0.20221098 -0.66181564 0.72187901
-0.18443322 -0.66382045 0.72479033
-0.17288826 -0.6651054 0.72645569
-0.16685513 -0.66670281 0.72640204
0.14353839 -0.66973966 0.72859091
0.15267037 -0.66784769 0.72847211
0.19427814 -0.66218728 0.72371197
-0.23009667 -0.65099549 0.723364
-0.21361484 -0.65855169 0.72158009
-0.18832646 -0.65840638 0.72871786
0.21075432 -0.65337718 0.72710174
0.22300504 -0.65340418 0.7234143
0.24794468 -0.64241529 0.72513586
-0.28269827 -0.63320148 0.7205106
-0.27660269 -0.63167977 0.72420281
-0.26123106 -0.6390031 0.72348422
-0.25571242 -0.6347965 0.72913736
0.25490013 -0.6370433 0.72746009
0.27231243 -0.63288188 0.72477883
-0.29161811 -0.62968761 0.72003472
0.28595862 -0.62998575 0.72204179
-0.32435343 -0.61304718 0.72039276
-0.3019987 -0.61659104 0.72705644
-0.29730093 -0.61732846 0.72836572
0.30906153 -0.61549348 0.72501659
0.31801605 -0.6139366 0.72245896
0.32644027 -0.61168051 0.7206127
0.31933102 -0.60781693 0.72703874
0.32998407 -0.60977596 0.72061241
-0.34542292 -0.59718227 0.72391164
0.34738708 -0.59476674 0.72496176
-0.36785042 -0.58519292 0.72265315
-0.3809227 -0.57392621 0.7249164
-0.37708059 -0.57209134 0.72836721
0.37981153 -0.57753026 0.722633
0.38010171 -0.57299364 0.72608423
-0.40152034 -0.5606339 0.72420442
-0.3988761 -0.56496096 0.72230017
-0.38748947 -0.56432563 0.72896326
0.38897118 -0.56883419 0.72465587
0.39329562 -0.56513548 0.72521549
0.40052634 -0.56244582 0.72334635
-0.41467771 -0.55408597 0.72182417
0.40271479 -0.55374986 0.72882026
0.41165474 -0.55790645 0.72060919
-0.42423719 -0.54029274 0.72670692
0.42065305 -0.54740059 0.72346538
-0.43228471 -0.53618932 0.7250011
-0.42074168 -0.53902096 0.72967738
0.42804262 -0.53392792 0.72917682
0.43225327 -0.53215647 0.72798645
-0.43809697 -0.5246802 0.72991556
0.4473671 -0.52497435 0.72405857
-0.46076614 -0.51887822 0.72004056
-0.45413047 -0.51600975 0.72628957
0.45801064 -0.51754707 0.72274858
0.46420363 -0.50521368 0.72750777
0.47419533 -0.50354934 0.72219902
0.4750123 -0.49627596 0.7266832
0.48039827 -0.49160516 0.7263183
-0.49365973 -0.48574901 0.72135127
-0.48499116 -0.48238549 0.72944272
0.4901163 -0.48796117 0.72227263
-0.49576959 -0.47405219 0.72765851
0.49070668 -0.47643319 0.72953105
-0.51067436 -0.46432257 0.72361284
-0.50845009 -0.46098787 0.72730172
-0.49950704 -0.46696627 0.72968191
0.51411515 -0.46335298 0.72179687
-0.52339166 -0.4507013 0.72313643
0.50852787 -0.45793405 0.72917396
0.51972282 -0.45117545 0.72548485
-0.51791441 -0.44762185 0.72896945
0.52024442 -0.44980666 0.72596079
0.53195024 -0.44276205 0.72179657
-0.54233444 -0.43211496 0.72052008
-0.53927743 -0.43216488 0.72278088
0.53557593 -0.43462664 0.72405618
-0.54918027 -0.42418954 0.72004473
0.53417617 -0.42753401 0.72929382
0.54829323 -0.41949826 0.72346091
-0.56163734 -0.4020336 0.72313774
-0.55036259 -0.40685269 0.72908789
0.57537258 -0.38710248 0.72048503
0.57760906 -0.37766397 0.72369784
0.58671343 -0.36945701 0.72060335
-0.58724982 -0.35989788 0.72498745
0.58773059 -0.35153475 0.72869456
0.59547955 -0.3551555 0.72060263
-0.6015178 -0.34249684 0.72171164
0.58998853 -0.3469826 0.72905111
0.59614319 -0.34767288 0.72369635
-0.60440075 -0.33198553 0.72421139
-0.59978682 -0.3335861 0.72730523
0.59541988 -0.33911508 0.72833657
-0.60235667 -0.32733959 0.72801954
0.60774291 -0.32959539 0.72250557
-0.60929316 -0.31969637 0.72563982
0.6078859 -0.31457728 0.72904956
-0.62042439 -0.30354083 0.72314125
0.61526167 -0.30504999 0.72690666
-0.62444836 -0.29370147 0.7237407
0.6189279 -0.29225335 0.72904778
0.62293929 -0.29348201 0.72512817
0.63506442 -0.26882657 0.72416782
-0.63754678 -0.2533944 0.72754604
0.64402205 -0.25449663 0.72143137
0.64516068 -0.24456532 0.72384614
-0.65385199 -0.22436839 0.72259021
0.64976108 -0.2211308 0.7272622
0.65177888 -0.22454077 0.72440642
-0.65436578 -0.21005446 0.72641838
0.65616578 -0.21461087 0.72345489
-0.65583456 -0.20436805 0.72671556
0.65589613 -0.20433785 0.72666639
0.66036129 -0.20090771 0.72357243
-0.65766621 -0.19926375 0.72647774
0.66038209 -0.19954863 0.72392935
-0.66631639 -0.18470018 0.72243166
0.66386449 -0.1757624 0.72690326
-0.6729998 -0.16342585 0.72136104
-0.66506189 -0.16318056 0.72874075
0.66220695 -0.16957855 0.72987807
-0.67308873 -0.15214691 0.72374141
-0.66515851 -0.15956511 0.72945291
0.67549634 -0.15743853 0.72035843
-0.67651701 -0.14196058 0.72261417
-0.66972309 -0.14255495 0.72879934
-0.67898136 -0.13708311 0.7212429
-0.67639768 -0.12956184 0.72505122
-0.67962354 -0.11595826 0.72433776
0.67629462 -0.11486032 0.72761977
-0.68375343 -0.1069088 0.72183913
0.67493707 -0.10993122 0.72963858
0.68382841 -0.10391773 0.72220248
-0.68534917 -0.081624158 0.72362399
0.68439293 -0.089726821 0.72356868
-0.68540376 -0.079011306 0.72386181
0.68659407 -0.074485913 0.72321272
-0.68843877 -0.066903226 0.72219914
0.68977618 -0.065303221 0.72106898
-0.68849605 -0.059512231 0.72279054
0.68910432 -0.057457116 0.72237742
0.69077194 -0.053762063 0.72106874
0.68793297 -0.044526018 0.72440392
-0.69127268 -0.03779481 0.72160101
-0.68699676 -0.030795936 0.72600454
0.68823433 -0.033798426 0.72469807
0.68992203 -0.025053913 0.7234484
-0.69335371 -0.0095887631 0.720532
-0.68881553 -0.00021879205 0.72493535
0.68672448 -0.0051417002 0.72689974
0.69284475 -0.0051285191 0.72106892
0.68619347 0.0080116307 0.72737563
0.69021934 0.006924876 0.72356766
-0.69110256 0.010799388 0.72267467
0.68535405 0.013261049 0.72808897
0.68826723 0.027495516 0.72493452
-0.68504483 0.039355561 0.72743493
0.68522197 0.032397225 0.72761172
-0.6903612 0.042741667 0.72219926
-0.68806827 0.055629984 0.72350866
-0.68195325 0.068810105 0.72814995
0.68822521 0.064615011 0.72261363
-0.68571115 0.076179005 0.72387391
0.6791088 0.076972656 0.72999203
-0.68587124 0.082460776 0.72303265
0.6878047 0.088579983 0.7204715
-0.68000489 0.10900659 0.72505671
0.67878789 0.10173163 0.72725391
-0.68132591 0.11705224 0.7225579
-0.67748684 0.12981407 0.72398633
-0.67663109 0.13305533 0.72419822
-0.67290491 0.14891833 0.72458196
0.6698091 0.14841036 0.72754949
0.67357963 0.14379489 0.72499096
-0.67191589 0.15774916 0.72363007
-0.66885489 0.15371735 0.72732443
0.67424041 0.15741196 0.7215395
0.66906977 0.16030107 0.72570407
-0.66209352 0.17480184 0.72874761
0.66656572 0.17207241 0.72531235
0.66491181 0.18252048 0.72427487
-0.66137487 0.19156224 0.72517782
-0.65621668 0.19524404 0.7288726
-0.65385711 0.2000117 0.72970021
-0.65465713 0.21779086 0.7238698
0.65767413 0.21343072 0.72243208
-0.6534934 0.22319563 0.72327518
-0.6461907 0.22661775 0.72875232
0.64834905 0.22080766 0.72861785
0.65178257 0.22660945 0.72375709
-0.65241295 0.23562983 0.72030061
0.64788735 0.23847982 0.72344148
-0.64170039 0.24049197 0.7282747
0.64635038 0.24752928 0.72177535
0.63861728 0.25085777 0.72748703
0.64200765 0.25858501 0.72177505
-0.63411057 0.26576895 0.72613299
0.63915676 0.26229656 0.72296488
0.62902105 0.27591458 0.72677571
-0.62310344 0.28522897 0.72827578
0.62562877 0.28836221 0.7248677
0.61906141 0.29991025 0.72581834
-0.61148393 0.30766848 0.72899085
0.62034988 0.30552605 0.72236663
-0.6188181 0.31038541 0.72161293
0.61431473 0.31748727 0.72236633
-0.61187994 0.32543361 0.72089934
-0.60702163 0.32448235 0.72542143
0.60502207 0.32544345 0.72665673
0.60270441 0.33556587 0.72397536
-0.59019452 0.35586444 0.72458839
-0.5884279 0.35612112 0.72589797
0.59436154 0.35246322 0.72284234
-0.57268924 0.37484545 0.72905219
0.57348651 0.37551692 0.72807693
0.58145201 0.3733696 0.7228443
-0.57987928 0.38087979 0.72018629
-0.56510574 0.38853219 0.72780305
0.56447458 0.38804165 0.72855324
0.56499976 0.39183104 0.72611439
0.5562858 0.4078286 0.72403139
-0.55115962 0.41953078 0.72125804
-0.54313725 0.41765317 0.72839779
0.54396904 0.41734084 0.72795707
0.55045819 0.41337192 0.72533965
-0.5449369 0.42505893 0.72274864
0.53866243 0.42129546 0.72962248
0.54300565 0.42392719 0.7248643
0.55007708 0.42089155 0.72129411
-0.52961004 0.43706328 0.72697163
0.54420179 0.43045771 0.72010326
-0.53171062 0.44217512 0.72233194
0.52642083 0.4455198 0.72414839
-0.52292252 0.45101327 0.72328353
-0.51631635 0.45000356 0.72863847
-0.5081569 0.45881966 0.72887725
0.5192337 0.45595825 0.7228393
-0.50712174 0.46483034 0.72578365
-0.50101995 0.47612906 0.72268939
-0.49143478 0.48192 0.7254259
-0.48270112 0.48712903 0.72780538
0.48949832 0.48668399 0.72355163
-0.48518723 0.49312252 0.72209346
0.47697282 0.49654248 0.72521752
0.48256919 0.49650851 0.72152829
-0.47060576 0.50577945 0.72298837
-0.46673575 0.5079087 0.72400367
0.46925509 0.5041852 0.72497928
-0.45078236 0.5199765 0.7255466
0.45736268 0.52048141 0.72105116
-0.43410537 0.53446168 0.72518975
0.43896124 0.53689331 0.72045642
-0.4167676 0.54777229 0.72542769
0.41912088 0.54530931 0.72592956
0.42044133 0.54634899 0.72438264
0.4321765 0.54078615 0.72164661
-0.4147504 0.55536264 0.72079736
-0.39765382 0.55747288 0.7287609
0.40521714 0.55353457 0.72759652
0.41186485 0.55143732 0.72545326
-0.39154252 0.56729531 0.72447711
0.39607248 0.56836694 0.72116911
0.40145496 0.56563991 0.72033608
-0.37587571 0.57883805 0.72364545
0.36925471 0.57919639 0.72676134
0.37344727 0.57242823 0.72997457
0.3867256 0.57536477 0.72069293
0.35516176 0.58734626 0.72724169
0.36714599 0.58083314 0.72652316
-0.35317281 0.59470034 0.72221822
-0.34798032 0.5900507 0.7285254
0.33476824 0.59761292 0.72854859
0.34404916 0.598203 0.72372508
-0.3200902 0.60748929 0.72697979
0.31721446 0.60826123 0.72759134
0.33276781 0.60732007 0.72140366
-0.30905908 0.61034131 0.72935975
0.31449905 0.61179394 0.72580653
0.32262322 0.61249 0.72164184
-0.29091313 0.62750822 0.7222203
-0.28452867 0.62686133 0.72531879
0.29540566 0.62359136 0.72378516
0.30206367 0.62247306 0.72199816
-0.2852625 0.63159388 0.72091132
-0.27269733 0.63251203 0.72495776
-0.26226151 0.63832897 0.72370863
-0.24951781 0.63659346 0.72971833
0.26221251 0.63650179 0.72533154
0.28539595 0.63150656 0.72093046
-0.24680656 0.64211297 0.72579402
-0.23053834 0.6469323 0.72686291
-0.22988185 0.64663082 0.72733891
-0.21841712 0.64992708 0.7279346
0.23390101 0.64288408 0.72937369
0.24262103 0.64113343 0.72806501
0.25324821 0.64147079 0.72413844
-0.2084156 0.65253907 0.72852993
-0.1830442 0.6590519 0.72948217
0.1863658 0.65810698 0.72949058
0.19743621 0.65526831 0.72913414
0.21482523 0.65270102 0.72651726
0.22195657 0.65212131 0.72489285
0.2305664 0.65418708 0.72033036
-0.20283766 0.66176838 0.72174686
-0.17538156 0.66504514 0.72591609
-0.16313137 0.66530406 0.72853041
-0.15907158 0.66628635 0.72853059
-0.14435817 0.66923952 0.72888833
0.1842251 0.66392928 0.72474349
0.20357728 0.66074771 0.72247082
-0.14637809 0.67266935 0.72531956
-0.13133956 0.67563975 0.72543782
-0.11819193 0.67383724 0.72936535
-0.093535319 0.67846596 0.72865123
0.10161309 0.67857629 0.7274676
0.11946683 0.6739912 0.72901458
0.15668294 0.67353934 0.72235018
0.16927183 0.67189217 0.72104138
0.17282173 0.67092222 0.72110265
-0.12533045 0.68008119 0.72234404
-0.11559458 0.68173963 0.72240466
-0.069989532 0.68294716 0.72710437
-0.051754303 0.68996495 0.7219885
-0.016058156 0.68646145 0.72698766
0.0028424857 0.68584877 0.72773677
0.021488024 0.68944836 0.72401255
0.044901967 0.68579078 0.72640747
0.066312134 0.68883908 0.72187227
0.086478636 0.68446666 0.7238974
0.093049631 0.68573785 0.7218762
0.11303235 0.68310553 0.72151923
-0.043760873 0.6913864 0.72115803
0.0054186536 0.69237679 0.7215144
-0.037291851 -0.68227446 0.73014188
-0.02685833 -0.68161857 0.73121315
-0.013807369 -0.68188059 0.73133188
-0.090412132 -0.67354399 0.73359448
-0.08502914 -0.67287904 0.73484725
-0.0332398 -0.67430609 0.73770159
-0.025468545 -0.67614138 0.73632991
-0.0044839266 -0.67335469 0.73930424
0.0054391595 -0.67930967 0.73383027
0.014241311 -0.67484593 0.73781955
0.046437196 -0.67493296 0.73641032
0.053901967 -0.67298615 0.73768246
0.073252469 -0.67813963 0.73126853
0.086977288 -0.67773807 0.73013824
0.11604065 -0.67220438 0.73121321
-0.16222562 -0.66270268 0.73109657
-0.1463581 -0.6622712 0.73482829
-0.13799994 -0.66027153 0.73823798
-0.12787552 -0.66455591 0.73621368
-0.1116694 -0.6635114 0.73978269
-0.099082418 -0.66775012 0.73775971
-0.087478839 -0.6672647 0.73966312
0.13635114 -0.66929662 0.73037577
0.14009272 -0.66090429 0.73727775
0.15394041 -0.66271752 0.7328763
-0.20064199 -0.65290004 0.73038512
-0.18233085 -0.65566254 0.73270535
-0.17479712 -0.65759575 0.73280883
0.15382563 -0.65704322 0.73799163
0.18339425 -0.65471154 0.73329163
-0.2252541 -0.64218098 0.73270816
-0.2042308 -0.64600682 0.73550254
-0.19769852 -0.64810252 0.73544312
0.19676423 -0.64725035 0.73644209
0.20369135 -0.64510393 0.73644161
-0.25746748 -0.63085771 0.73193377
-0.24979678 -0.63503146 0.73098111
0.24316499 -0.6340512 0.73406029
-0.27524224 -0.62295407 0.73223597
-0.25344139 -0.62511355 0.73824126
0.24780586 -0.62696075 0.73858452
0.25734285 -0.62666285 0.73557079
0.26468465 -0.62235308 0.7366237
-0.29844102 -0.61154103 0.73276842
-0.28722525 -0.61419296 0.7350291
-0.27300933 -0.61553359 0.73931283
0.26562071 -0.61991096 0.73834366
0.2731747 -0.61476278 0.73989052
0.28208101 -0.61559647 0.73584443
-0.34084311 -0.59175873 0.73050594
-0.33317295 -0.59610695 0.73051107
-0.32635933 -0.59644711 0.73330492
0.3175399 -0.59675992 0.73691493
0.32260644 -0.59945756 0.7325123
-0.34632176 -0.58440006 0.73384535
-0.3375577 -0.58758491 0.73538536
0.3429831 -0.58445698 0.73536944
-0.3666361 -0.5732494 0.73277414
-0.35201767 -0.57675952 0.73717272
0.35301709 -0.57358271 0.73917466
-0.37132439 -0.56187516 0.73919541
0.37488347 -0.56220031 0.7371518
-0.39704648 -0.55088913 0.73408061
-0.38747066 -0.55054563 0.7394349
0.38221207 -0.55526572 0.73864228
0.40028465 -0.55031902 0.73274732
-0.4076727 -0.54531449 0.73241717
-0.39057735 -0.54850656 0.73931628
0.39820111 -0.54753631 0.73596036
0.40344998 -0.54583812 0.73436129
-0.42144319 -0.5378269 0.73015338
-0.41615584 -0.5362708 0.73431969
0.41372836 -0.53112996 0.73941118
-0.4376224 -0.5229187 0.73146236
-0.42493007 -0.52435744 0.73788828
0.42446944 -0.52676886 0.73643601
0.43085676 -0.52289999 0.73548311
-0.44476238 -0.51707762 0.73130858
0.44523099 -0.5153631 0.73223323
-0.46276578 -0.501499 0.73098832
-0.45299453 -0.50948864 0.73158216
0.45441377 -0.50497812 0.73382455
-0.45591021 -0.49552789 0.73931855
0.45475325 -0.49681026 0.73916996
0.46805891 -0.48898697 0.73607582
-0.49059632 -0.47577199 0.73003817
-0.48169369 -0.47385547 0.73717755
-0.49567401 -0.46206459 0.73539388
0.48657224 -0.46982503 0.73655152
0.49432954 -0.46953648 0.73155373
0.49620166 -0.45561567 0.73905033
0.50393397 -0.45452914 0.73447341
-0.51306915 -0.44147831 0.73610735
0.51736915 -0.44363162 0.73179114
-0.51793081 -0.43746376 0.73509806
0.51220411 -0.4387536 0.73833585
0.52002591 -0.43892956 0.7327432
-0.52214527 -0.42753381 0.73795348
0.51869673 -0.42880914 0.73964441
0.52699041 -0.42129678 0.73809701
-0.53772122 -0.41490564 0.73396659
-0.54059541 -0.40122485 0.73944074
-0.53557616 -0.40833077 0.73920333
0.55044574 -0.40315846 0.73107642
-0.55049485 -0.39976966 0.73289567
0.55858016 -0.39291808 0.73048168
-0.56322312 -0.38378569 0.73176712
-0.55485904 -0.38781497 0.73602086
0.55833507 -0.38361219 0.73559809
-0.57574028 -0.36125991 0.73349172
-0.56489873 -0.36789 0.73860836
0.56685168 -0.36277726 0.73964316
0.57822698 -0.36026496 0.73202759
0.57692736 -0.3560228 0.73512089
-0.58369899 -0.34580538 0.73464888
-0.57677883 -0.34668574 0.73968285
0.57882285 -0.34412256 0.73928487
0.58532256 -0.34102002 0.73559564
-0.58949167 -0.33103669 0.73682493
0.58337259 -0.33556598 0.73964113
-0.59290707 -0.32676256 0.73599231
-0.60755986 -0.3120639 0.73039973
-0.60166246 -0.30319256 0.73896825
0.59971952 -0.30996552 0.73773617
0.60377592 -0.30688342 0.73571289
-0.61491787 -0.29508162 0.73129946
-0.60719472 -0.29315057 0.73849398
0.6043306 -0.29675841 0.73940116
0.61562639 -0.28480417 0.73476791
-0.62153107 -0.27825236 0.73230374
0.61598694 -0.27590895 0.73785216
-0.62664086 -0.26175138 0.73403227
0.62476522 -0.26858982 0.73315805
0.63120168 -0.26007277 0.73071301
-0.63292491 -0.2512601 0.73230582
-0.62959778 -0.25197408 0.73492354
0.62975508 -0.24357677 0.73761547
0.63503921 -0.24705964 0.73190463
-0.63493788 -0.23449259 0.73611516
0.63998139 -0.23247044 0.73237938
-0.63783932 -0.22453444 0.73671186
0.63811928 -0.22777465 0.73547328
0.64143836 -0.22880138 0.73226035
-0.64735341 -0.21861254 0.73016572
-0.63909554 -0.21284002 0.73908997
0.64292681 -0.21545999 0.73499686
-0.64540929 -0.20647052 0.73540139
0.65038657 -0.20409745 0.73166895
-0.65090477 -0.1952641 0.73361701
0.64783591 -0.19489852 0.73642361
-0.65304023 -0.18423079 0.73457211
-0.65860009 -0.17856207 0.73099947
-0.65376699 -0.16387318 0.73873705
0.65506345 -0.16497833 0.7373414
-0.66031158 -0.15163958 0.73552215
0.65703076 -0.15847127 0.73701829
-0.65770763 -0.14846358 0.7384972
0.65800518 -0.14679824 0.73856503
0.66055274 -0.14339162 0.73695862
0.66502118 -0.13883969 0.73380512
-0.66525227 -0.11061004 0.73837954
0.66673076 -0.11236329 0.73677903
-0.67461807 -0.10427958 0.73076391
0.67253107 -0.10642236 0.7323755
-0.66625041 -0.095634468 0.73956966
0.66619432 -0.098690405 0.73921853
-0.67362076 -0.085292354 0.73413837
0.67355955 -0.083143473 0.73443967
-0.6746105 -0.075174823 0.73433328
-0.67125297 -0.063521959 0.73849827
0.67252982 -0.068430521 0.73689461
-0.67447144 -0.050639782 0.73655897
0.67427456 -0.048243426 0.73689735
0.68070364 -0.046713144 0.73106313
-0.68202341 -0.034217149 0.73052633
0.67588073 -0.03638646 0.73610771
0.67223841 -0.022543244 0.73998809
0.68177688 -0.026828881 0.73106545
0.68033224 -0.015893634 0.73273015
-0.68321502 -0.0080933012 0.73017097
-0.67477131 -0.00046522744 0.73802471
0.68013412 -0.000584692 0.73308736
0.67404211 0.0043238732 0.73868012
-0.67614257 0.015766192 0.7366007
0.67706209 0.016684122 0.73573625
0.68040073 0.012716058 0.73273021
-0.67694783 0.027195515 0.73552674
0.67777622 0.027454041 0.73475432
0.68249589 0.02098163 0.73058748
-0.68090075 0.033613306 0.73160166
-0.67768675 0.036226701 0.73445576
-0.67192608 0.043547697 0.739335
0.67475235 0.06305068 0.73534721
-0.67045957 0.074980013 0.73814607
0.67180139 0.079831034 0.73641729
-0.67769098 0.087056756 0.73017317
-0.66967297 0.086915255 0.73755187
0.66895747 0.080612332 0.7389155
0.67407137 0.086695448 0.73356098
-0.6686483 0.093539283 0.7376709
0.66690534 0.09239202 0.73939097
0.67182255 0.096540838 0.73439348
-0.66626257 0.1065038 0.73807108
0.66599065 0.10397638 0.73867649
-0.67185384 0.11635185 0.73148608
0.66632205 0.11592539 0.73659593
0.67016184 0.11755355 0.73284549
-0.67264473 0.12068799 0.73005539
-0.6636312 0.12525022 0.73749876
-0.66448545 0.13010707 0.73588687
0.66092139 0.13890968 0.73748577
0.66503549 0.1425343 0.73308301
-0.66432762 0.15247402 0.73172188
-0.65768671 0.15739867 0.73666137
0.66219491 0.15519625 0.73308206
0.65835845 0.16474898 0.73445129
0.66114455 0.16204344 0.73254812
-0.6520505 0.17309974 0.73814851
0.6576705 0.17436232 0.73284638
-0.65493685 0.18455476 0.73279816
-0.64806688 0.1831941 0.73921978
0.64644307 0.19685642 0.73712647
-0.64264083 0.21365142 0.73577392
0.64523554 0.21642543 0.73268521
0.6418125 0.22509465 0.73307997
-0.63584799 0.23756413 0.73434365
0.63703877 0.23532309 0.73403215
-0.626248 0.24664609 0.73957932
0.62925398 0.24347314 0.73807788
0.62431794 0.25310165 0.73903024
-0.6255042 0.26980969 0.73208302
0.62762856 0.26206085 0.73307961
-0.62093645 0.27766165 0.73303556
-0.61405629 0.27750224 0.73886824
0.62435675 0.27488253 0.73117518
-0.61736095 0.2915588 0.73065615
-0.60695332 0.29835993 0.73660654
0.60269338 0.30447683 0.73760033
0.58860236 0.32823026 0.7387898
0.59318554 0.32369488 0.73712313
-0.59489137 0.33215734 0.73196602
0.58755296 0.33222955 0.73783702
0.58442628 0.34714943 0.733437
-0.57520741 0.36254868 0.73327631
0.5641067 0.37510073 0.73558056
-0.5609166 0.38178033 0.7345866
-0.55510151 0.38996145 0.73470527
0.56146151 0.38478175 0.73259908
-0.5533613 0.39287183 0.73446727
0.53797114 0.40614593 0.73866642
0.54606462 0.40432045 0.73371315
-0.53812069 0.41306692 0.73470944
0.53182513 0.41676354 0.73720092
-0.5201273 0.42922902 0.73839462
-0.51783085 0.43503273 0.73661047
0.51983285 0.43207198 0.73694187
-0.51788926 0.44194183 0.7324459
-0.50618213 0.44755501 0.73720598
0.50668579 0.44908509 0.73592991
-0.49369946 0.47195369 0.73042381
0.48508644 0.47473499 0.73438233
-0.47249588 0.48525551 0.73570973
0.47626424 0.48457417 0.73372972
-0.46672472 0.49671608 0.73173332
0.45686209 0.49420968 0.73961586
0.46783662 0.49738419 0.73057222
-0.43901467 0.5098244 0.7398262
0.4538455 0.50475866 0.73433006
-0.4434332 0.51406002 0.73423851
-0.43627146 0.51610523 0.73708993
0.43773675 0.51754051 0.73521268
0.44011283 0.51296586 0.73699754
-0.42765999 0.52006251 0.7393505
0.42789495 0.52387202 0.73652154
-0.4141506 0.53467369 0.73661393
0.42223492 0.53338468 0.73295075
0.4070774 0.54407102 0.73367006
-0.39063668 0.55001599 0.73816204
-0.38344577 0.55694675 0.73673439
0.38402396 0.55588764 0.73723364
-0.37049976 0.56564063 0.73673457
-0.36405951 0.56810969 0.73804319
0.36256287 0.56733793 0.73937529
0.37631804 0.56082076 0.73747158
-0.36532196 0.57302684 0.73360527
-0.35222679 0.5765866 0.73721224
0.37051973 0.5738737 0.7303316
-0.34553304 0.58310568 0.73525089
-0.33632535 0.58330047 0.73935425
-0.32528102 0.58997792 0.73899776
0.33264413 0.58598137 0.73889595
0.34607306 0.58118111 0.73651707
-0.32905707 0.59100813 0.73649889
0.31446964 0.59755296 0.73758698
0.32691824 0.59422588 0.73485661
-0.32324189 0.60035068 0.7315017
-0.31793401 0.6026004 0.7319777
-0.28619197 0.60874116 0.73995078
0.28959265 0.60725462 0.73984778
0.29001066 0.60705507 0.73984778
0.31592026 0.60109973 0.73407698
-0.29749417 0.61052382 0.73400074
-0.28136393 0.61299974 0.73828518
-0.26743925 0.61877519 0.73864257
-0.27641976 0.62105274 0.73340654
-0.26896697 0.62654591 0.73150271
-0.2568292 0.62437969 0.73769081
-0.24850565 0.62871605 0.73685795
0.2571699 0.62730271 0.73508751
0.2796931 0.62320912 0.73032701
-0.25663826 0.63224643 0.73102719
-0.2311884 0.63837886 0.73418194
-0.22773719 0.63508105 0.73811001
0.21185552 0.6392352 0.73924947
0.22612862 0.63556659 0.73818421
0.23801024 0.63329941 0.73639655
-0.21631117 0.64248306 0.73513561
-0.20578319 0.64437306 0.73650253
-0.19373292 0.64456475 0.73959696
0.21545282 0.64774996 0.73074943
-0.1916195 0.65114951 0.73436129
-0.16615984 0.65863645 0.73388571
-0.15964553 0.65905333 0.73495704
0.15408754 0.65502709 0.73972422
0.16929545 0.653014 0.73817694
0.17512794 0.65788913 0.73246491
0.18497071 0.65495956 0.73267138
-0.15350682 0.66367161 0.73210293
-0.1032379 0.66903043 0.73602933
-0.098319903 0.66963971 0.7361483
0.11217257 0.66428798 0.73901129
0.12847462 0.66844058 0.73258501
-0.095410801 0.6709742 0.7353152
-0.080852106 0.67262268 0.73555315
-0.075034633 0.67448062 0.73446733
-0.06614618 0.67604029 0.73388767
-0.056655753 0.67625535 0.73448366
-0.041466881 0.67954433 0.73246133
-0.034165021 0.67763543 0.7346034
-0.020224622 0.6785804 0.73424643
-0.012464473 0.67747456 0.73543888
-0.00044702456 0.67304236 0.73960102
0.0075022164 0.67495656 0.73781592
0.013636618 0.67649788 0.73631471
0.058017343 0.67896861 0.73186702
0.10494328 0.67006612 0.73484528
-0.01231881 0.68120724 0.73198563
-0.0052080723 0.68244725 0.73091471
0.029640062 0.68169284 0.73103285
-0.03146486 -0.67158544 0.74025697
-0.09412238 -0.66187865 0.74367613
-0.072530098 -0.66161352 0.74632674
-0.064851619 -0.66694099 0.74228048
-0.035215549 -0.66464615 0.74632573
-0.020405743 -0.66713023 0.7446593
-0.016068161 -0.66533077 0.74637353
-0.0022557161 -0.66664189 0.74537313
0.0051520932 -0.6627472 0.74882382
0.017695786 -0.6626659 0.74870455
0.023784326 -0.66655052 0.74507856
0.032350875 -0.66170853 0.74906075
0.048728507 -0.66137832 0.7484647
0.086888023 -0.66438752 0.74231887
-0.14499231 -0.6544801 0.74204564
-0.11098136 -0.65394968 0.74835032
-0.073520735 -0.65772587 0.74965888
0.09716665 -0.65872204 0.74608445
0.13151003 -0.65041417 0.74810523
0.1455368 -0.65193111 0.74417865
0.16281399 -0.65069312 0.74168015
-0.16665165 -0.64766592 0.74347359
-0.13502024 -0.64968693 0.74811417
0.15897301 -0.64673305 0.74596357
-0.2071259 -0.63321811 0.74574095
-0.19709328 -0.63641906 0.74573505
-0.17859308 -0.63977784 0.74752015
0.19474708 -0.63638204 0.74638259
0.2035601 -0.63383365 0.74619919
0.22177178 -0.63219333 0.74239081
-0.2339641 -0.62465924 0.74502462
-0.21440601 -0.62768883 0.74835396
0.22710925 -0.6243574 0.74739146
0.24764557 -0.62137711 0.74334204
-0.27113587 -0.61234283 0.74264479
-0.26003239 -0.6141203 0.74514312
-0.2524215 -0.61178803 0.74966466
0.26401007 -0.61243349 0.74513048
-0.27361181 -0.60511684 0.74764276
0.26681152 -0.60611027 0.74929142
0.27939162 -0.60395861 0.74643791
-0.31375724 -0.59386879 0.74086052
-0.30494344 -0.59518772 0.74347883
-0.29649124 -0.59409064 0.74776244
0.29326779 -0.59421241 0.74893379
0.30179349 -0.59484524 0.74503493
-0.32559749 -0.58326346 0.74416775
-0.31351021 -0.58650124 0.74681067
0.31568533 -0.58184844 0.74952883
0.32912213 -0.58536649 0.74096048
-0.34093833 -0.57192296 0.74609613
-0.33166969 -0.57441479 0.74835718
0.33133951 -0.57509649 0.74798185
-0.35642615 -0.56606877 0.74331659
-0.3488794 -0.56254441 0.74954706
-0.33940586 -0.56862491 0.74930918
0.34880695 -0.56498855 0.74774224
0.35557687 -0.56657547 0.7433399
-0.3744494 -0.55477548 0.74297166
0.36490524 -0.55616879 0.74667066
-0.38588974 -0.54973543 0.74086267
0.38473076 -0.54280806 0.74655104
0.39824888 -0.54104441 0.74072003
-0.40187168 -0.53020966 0.74657547
-0.39026618 -0.53699154 0.74788421
0.39340112 -0.53589547 0.74702716
-0.41030693 -0.52590692 0.7450285
-0.40202281 -0.52706522 0.74871749
-0.42500177 -0.51461118 0.74467707
0.42602482 -0.51423985 0.74435073
-0.43474403 -0.50587499 0.74503827
0.4256351 -0.50945044 0.747859
0.43930802 -0.50618541 0.7421459
-0.45342007 -0.49252239 0.74284983
-0.44511035 -0.49945951 0.74324352
0.44103295 -0.49921596 0.74583489
-0.44486201 -0.48980498 0.74978864
0.44814318 -0.48976788 0.74785703
0.45810351 -0.487068 0.74357247
0.4640446 -0.4773441 0.74619043
-0.47643921 -0.46386302 0.7468828
-0.46935678 -0.46829158 0.74860042
0.47424275 -0.46270686 0.74899417
0.48665729 -0.46008283 0.74262023
-0.49101838 -0.45808274 0.74098647
-0.48587289 -0.45113313 0.74860179
0.47676823 -0.45963162 0.74928409
0.48437011 -0.45484152 0.74732941
-0.50187552 -0.44596159 0.74110514
