# .PCD v0.7 - Point Cloud Data file format
VERSION 0.7
FIELDS x y z normal_x normal_y normal_z curvature
SIZE 4 4 4 4 4 4 4
TYPE F F F F F F F
COUNT 1 1 1 1 1 1 1
WIDTH 602
HEIGHT 1
VIEWPOINT 0 0 0 1 0 0 0
POINTS 602
DATA ascii
11.520047 52.04121 -36.220165 -0.015348257 0.030676367 0.99941158 0.0036469672
11.520047 56.450489 -36.240871 0.024979353 0.015754499 0.99956375 0.00057960273
11.520047 56.498699 -36.249073 0.024984363 0.015781663 0.99956328 0.00057990558
11.642484 30.807413 -36.006172 0.01048991 0.0087061003 0.99990708 0.0019195727
11.642484 31.488695 -36.067917 -0.015202876 -0.031819414 0.99937797 0.0037111626
11.642484 31.9704 -35.995209 0.062696412 -0.086866982 0.99424511 0.00058236113
11.642484 37.897129 -36.149559 0.0030198435 0.061937258 0.99807549 0.0025965867
11.642484 43.030174 -35.243008 -0.51904446 -0.19603121 0.83196437 0.02556227
11.642484 44.403194 -35.229736 -0.67835325 -0.041014481 0.73359025 0.046298999
11.642484 47.883244 -36.242672 -0.029103722 0.023804661 0.99929297 0.0024243502
11.642484 50.722507 -36.182045 -0.0070239566 0.016013974 0.99984705 0.0022467049
11.642484 52.094032 -36.171047 0.012127007 0.012879596 0.99984354 0.0018153074
11.642484 52.141891 -36.185181 0.012247554 0.01237328 0.99984843 0.0023039458
11.794205 29.496229 -35.948597 0.020673579 0.027827365 0.99939895 0.0028605144
11.794205 29.545204 -35.958206 0.02031276 0.028432613 0.99938929 0.0037106276
11.794205 33.574028 -36.078331 -0.0046668304 0.064801678 0.99788725 0
11.794205 33.622169 -36.066349 -0.0042811036 0.06968414 0.99755985 0
11.794205 33.670956 -36.075047 -0.0042811036 0.06968414 0.99755985 0
11.794205 34.786423 -36.044075 0.014131626 -0.0089513389 0.99986011 0.0012347437
11.794205 35.466572 -36.05703 -0.025258321 0.037191931 0.99898887 0.0053002439
11.794205 37.556293 -36.068268 -0.030199375 0.044822216 0.99853837 0.0020173236
11.794205 38.529148 -36.168564 -0.021600761 -0.020796852 0.9995504 0.0032104484
11.794205 38.57777 -36.170166 -0.0051155398 -0.0098779323 0.99993813 0.0038934469
11.794205 44.647919 -35.244507 -0.67837024 -0.041635893 0.73353958 0.046367459
11.943824 31.050053 -36.013008 0.0015114089 0.0076232515 0.99996978 0.0020673471
11.943824 35.079456 -36.119244 0.027492629 0.056192946 0.99804133 0.0023345768
11.943824 35.661392 -36.085228 -0.051796786 0.004805468 0.99864614 0.0049621421
11.943824 35.709873 -36.080772 -0.051845424 0.0048100525 0.99864352 0.0053682327
11.943824 36.390141 -36.093472 -0.044599161 0.01355663 0.99891293 0.0026555194
11.943824 36.584805 -36.117458 -0.027232546 0.0093328115 0.99958557 0.0022914992
11.943824 39.064034 -36.153465 0.027794961 0.004235907 0.9996047 0.0030354306
11.943824 39.112667 -36.154362 0.028857792 0.0047289045 0.99957228 0.0030224633
11.943824 45.431763 -35.271271 -0.64027303 0.25556883 0.72438598 0.03368558
11.943824 45.480618 -35.276413 -0.65440845 0.24019657 0.71697646 0.031943854
11.943824 48.228062 -36.190735 -0.056132033 0.012561523 0.9983443 0.0010746608
11.943824 50.473286 -36.248177 -0.020795345 0.032718234 0.99924821 0.0024314977
11.943824 54.836647 -36.191326 -0.023642119 0.037964009 0.99899936 0.00028358214
11.943824 57.234371 -36.253475 -0.052855756 0.072699204 0.99595231 0.0015799273
12.11156 30.326283 -36.073624 0.062106524 0.027278448 0.99769676 0.0010459131
12.11156 31.050793 -36.029007 0.025870852 0.0025027737 0.99966222 0.0017463565
12.11156 31.197063 -36.048397 -0.00124784 0.050237678 0.9987365 0.0016433367
12.11156 31.972525 -36.047207 0.020880939 -0.046445638 0.99870259 0.0024462582
12.11156 32.165901 -36.033272 0.033971827 -0.022919061 0.99915993 0.0010671736
12.11156 33.428246 -36.070549 0.0011492665 -0.013963835 0.99990183 0.0030094227
12.11156 33.670521 -36.060909 -0.00064485602 0.048961803 0.99880046 0.0026245937
12.11156 38.140297 -36.178802 -0.027060593 0.053497851 0.99820125 0.0036278924
12.11156 38.577717 -36.138187 -0.041321442 0.0097549157 0.99909824 0.00064420444
12.11156 39.015377 -36.173714 0.026868965 0.0026639602 0.9996354 0.0030461738
12.11156 39.750023 -35.216 -0.23493361 -0.55592203 0.79734361 0.036117975
12.11156 39.945065 -35.318974 -0.57819182 -0.2115404 0.78800052 0.059113089
12.11156 43.769032 -35.116627 -0.097905762 0.025429955 0.99487072 0.0020129569
12.11156 47.445335 -36.21106 -0.093176097 0.0020037771 0.99564767 0.0022391423
12.11156 47.644775 -36.13311 -0.094713517 0.0057707345 0.99548781 0.0030891844
12.11156 48.129597 -36.204037 -0.056367729 0.012455117 0.99833238 0.001064427
12.11156 52.436993 -36.169662 -0.01637966 0.0020273831 0.99986374 0.0016906833
12.11156 54.10326 -36.168514 -0.0090357978 0.0013200495 0.99995828 0.0019940007
12.11156 55.765751 -36.220074 -0.0022480323 0.016137436 0.99986732 0
12.244351 28.918499 -36.007942 0.00076308107 -0.038081151 0.99927443 0.00090455759
12.244351 29.356146 -36.041553 0.013804605 0.046927352 0.99880296 0.0038984919
12.244351 30.081877 -36.029942 0.032405823 0.065902181 0.99729979 0.0021310626
12.244351 33.66993 -36.041691 -0.0018987934 0.041680809 0.99912918 0.00056097482
12.244351 33.962738 -36.09787 0.0011145504 0.038505245 0.99925774 0.001937308
12.244351 35.176712 -36.127094 0.017370911 -0.0077390647 0.99981916 0.0019065582
12.244351 36.487614 -36.115143 -0.031928513 0.020552428 0.99927884 0.0029811489
12.244351 38.383144 -36.111092 -0.064674906 0.0066493042 0.99788421 0.0017672364
12.244351 40.288403 -35.199921 -0.32888159 0.47176543 0.81809193 0.03990934
12.244351 45.336857 -35.187515 -0.098401934 -0.0044256793 0.99513686 0.0012155519
12.244351 47.351139 -36.142086 -0.094102539 0.0028729413 0.99555832 0.0021910197
12.244351 47.399433 -36.153198 -0.094102539 0.0028729413 0.99555832 0.0021910197
12.244351 48.034206 -36.161411 -0.058316365 0.053291772 0.99687469 0.00091382407
12.244351 50.283718 -36.159023 0.021375401 0.026635967 0.99941665 0.0040835445
12.244351 50.818455 -36.209095 0.028175607 0.049832322 0.9983601 0.0015779427
12.244351 50.867092 -36.213181 0.028164135 0.048854992 0.99840868 0.0016216021
12.244351 51.355282 -36.228825 0.042423796 -0.023720775 0.99881816 0.00063626032
12.244351 54.496994 -36.152645 0.0096035218 0.014151455 0.99985379 0
12.244351 54.639091 -36.206329 0.009755916 0.012458198 0.99987483 0
12.244351 54.686691 -36.221527 0.009755916 0.012458198 0.99987483 0
12.244351 55.715153 -36.235474 -0.02227232 0.06194574 0.99783093 0
12.244351 55.76263 -36.251099 -0.0037468546 0.033560827 0.99942964 0.0005126216
12.244351 55.810478 -36.263023 0.0070167626 0.032545455 0.99944562 7.0685186e-05
12.244351 56.007256 -36.257259 -0.0025039669 0.013317466 0.99990821 0.00027611243
12.438427 33.184986 -36.049229 0.051385622 0.0026912428 0.99867523 0.00049984484
12.438427 33.622894 -36.08968 0.082821339 0.039399359 0.9957853 0.003996422
12.438427 36.195145 -36.050636 0.022938933 0.034252781 0.99914992 0.001277723
12.438427 37.800087 -36.176174 -0.026831346 0.053569373 0.99820358 0.0036339378
12.438427 46.952885 -35.277321 -0.6195749 0.23864168 0.74778146 0.019530265
12.438427 54.149178 -36.202728 0.019944042 0.0066800108 0.99977881 0.0016211509
12.438427 57.380512 -36.263641 -0.011590545 0.035182055 0.99931371 0.0031311091
12.438427 57.524345 -36.294556 -0.011590545 0.035182055 0.99931371 0.0031311091
12.438427 57.674389 -36.269562 -0.011889405 0.037700135 0.99921834 0.0030929453
12.542852 29.985764 -36.044254 -0.031315759 0.062379148 0.9975611 0.0013777526
12.542852 31.633266 -36.04884 0.073705539 0.0047364482 0.9972688 0
12.542852 33.186623 -36.097824 0.056560159 0.00054374646 0.99839902 0.0016914962
12.542852 33.622234 -36.068466 0.093296558 0.045356702 0.99460471 0.001748786
12.542852 52.190361 -36.191513 -0.020559054 -0.01067448 0.99973166 0.001658574
12.542852 53.171272 -36.176796 0.018868305 -0.0038379435 0.99981463 0.00043659713
12.542852 55.423206 -36.211784 -0.029334415 0.042427044 0.99866885 0.00096989231
12.743399 29.305784 -36.007141 -0.015420792 0.032615148 0.999349 0.0059575182
12.743399 30.617411 -36.084503 -0.061702948 0.039881382 0.99729747 0.0028592141
12.743399 31.53783 -36.083405 0.041135084 0.018345982 0.99898511 0.0017157701
12.743399 32.604717 -36.097027 0.0063503701 0.025292357 0.99965996 0.0026499729
12.743399 33.380688 -36.099953 0.112174 0.031259153 0.99319679 0.0006168136
12.743399 34.592907 -36.071472 -0.026163228 0.004634649 0.99964696 0.00072053203
12.743399 36.24424 -36.083275 0.019766636 0.00026547376 0.99980456 0.0015870504
12.743399 36.390923 -36.146893 0.020133208 0.00091759296 0.99979687 0.0022861366
12.743399 37.799366 -36.061268 -0.71737576 -0.50098449 0.48413488 0.013667806
12.743399 50.233646 -36.175888 0.044935308 0.044542994 0.99799633 0.0027380234
12.743399 51.01252 -36.232037 -0.012416422 0.015559893 0.99980187 0.0031609156
12.743399 53.366669 -36.183933 0.012370133 -0.0067524808 0.9999007 0
12.743399 54.789501 -36.171341 0.011246366 0.016726963 0.99979687 0.0023907446
12.743399 57.146244 -36.161079 -0.0034853129 0.0047456454 0.99998266 0.003661148
12.743399 57.195324 -36.161358 -0.0034853129 0.0047456454 0.99998266 0.003661148
12.844137 29.450455 -35.996395 -0.011368275 0.044330101 0.99895233 0.0041210335
12.844137 29.59606 -36.002132 -0.025195813 0.053600419 0.99824458 0.0025651604
12.844137 30.083393 -36.059052 -0.039322831 0.057625841 0.99756348 0.0011308402
12.844137 30.22736 -36.033272 -0.03996468 0.058587473 0.99748194 0.0010610764
12.844137 30.907818 -36.079887 -0.095227383 0.041036367 0.9946093 0
12.844137 32.6516 -36.053566 -0.032812361 -0.014965611 0.99934953 0.0020336143
12.844137 32.798328 -36.087856 -0.034807622 -0.020111378 0.99919164 0.00090734893
12.844137 32.846912 -36.090508 -0.035047416 -0.020220434 0.99918103 0.0008982108
12.844137 34.205257 -36.094818 0.028383251 -0.040914062 0.99875939 0.00076124433
12.844137 34.933346 -36.097958 -0.03415845 -0.010034395 0.99936599 0.0002746981
12.844137 38.576298 -35.269283 -0.29804239 -0.17006676 0.93928057 0.010726019
12.844137 42.44532 -35.097572 -0.044379707 -0.018739954 0.9988389 0.0025559547
12.844137 43.768768 -35.125668 -0.018173194 -1.23215e-05 0.9998349 0.0037173582
12.844137 45.733543 -35.08881 -0.10072515 0.020307152 0.99470699 0.0014387085
12.844137 50.039028 -36.159904 0.00015978741 0.0059192358 0.99998254 0.0025441612
12.844137 50.376667 -36.230728 0.044285335 0.043731824 0.99806124 0.0023738407
12.844137 51.058605 -36.271248 -0.012725469 0.011297685 0.99985522 0.0019434566
12.844137 52.726383 -36.224571 0.0067161373 0.026944805 0.9996143 0.0011903911
12.844137 54.247684 -36.197651 0.040844828 0.0061281407 0.99914664 0.0014305569
12.844137 54.296432 -36.200615 0.040844828 0.0061281407 0.99914664 0.0014305569
12.996759 28.966465 -36.000351 -0.014477818 0.0097837634 0.99984735 0.0053129829
12.996759 29.01446 -35.993153 -0.014477818 0.0097837634 0.99984735 0.0053129829
12.996759 29.156427 -35.935936 -0.033386052 0.011428121 0.99937719 0.0035024283
12.996759 31.296736 -36.109718 -0.020204483 0.030189883 0.99933994 0.0025957292
12.996759 31.635477 -36.100407 0.00040863996 0.020068645 0.99979854 0.001460816
12.996759 33.62442 -36.138771 0.030414851 -0.022943597 0.99927402 0.00058586214
12.996759 33.672733 -36.132771 0.02961796 -0.021707045 0.99932551 0.00061517808
12.996759 37.79464 -35.305435 -0.8717553 -0.023832474 0.48936158 0.04109567
12.996759 37.843506 -35.309032 -0.37465119 -0.14735322 0.91538167 0.0072351587
12.996759 37.892296 -35.298481 -0.37465119 -0.14735322 0.91538167 0.0072351587
12.996759 37.941162 -35.301315 -0.37465119 -0.14735322 0.91538167 0.0072351587
12.996759 37.990005 -35.29908 -0.37621441 -0.14664416 0.91485423 0.0068993089
12.996759 38.038872 -35.302124 -0.37621441 -0.14664416 0.91485423 0.0068993089
12.996759 40.484287 -35.189369 -0.094522521 -0.022706516 0.99526376 0.0028285799
12.996759 41.85759 -35.067574 -0.0032028274 -0.023857275 0.9997102 0.0018900562
12.996759 42.789574 -35.053776 -0.050187275 0.0059364992 0.99872226 0.0032493006
12.996759 49.106514 -36.212742 -0.4392958 0.24994569 0.86287105 0.028780809
12.996759 49.69136 -36.241283 -0.045790002 0.0031087571 0.99894619 0.0038100977
12.996759 57.184425 -36.261368 0.02184668 0.043191638 0.99882787 0.0031374698
13.142643 30.275755 -36.032417 -0.065338463 0.016724305 0.99772298 0.00239695
13.142643 30.323435 -36.017426 -0.087664947 0.016972966 0.99600542 0.0012207882
13.142643 30.371733 -36.014484 -0.08789365 0.015790092 0.99600464 0.0012440521
13.142643 35.904926 -36.124741 0.026288051 0.016130777 0.99952424 0.0016092212
13.142643 42.590275 -35.194378 0.015048026 -0.0012322126 0.99988598 0.0018904072
13.142643 43.623409 -35.061569 0.025503574 -0.0033537971 0.99966913 0.004062986
13.142643 44.111496 -35.148144 -0.0033452616 -0.023282068 0.99972337 0.0068079405
13.142643 44.263252 -35.004852 -0.15372112 0.073992312 0.98534 0.0060307449
13.142643 52.194794 -36.135593 0.007974511 -0.017821142 0.99980938 0.0037944112
13.142643 53.805298 -36.211521 0.0240322 0.029792218 0.99926716 0.001387129
13.292469 29.015369 -36.008709 0.0035426656 -0.0025174478 0.99999058 0.0040015671
13.292469 29.404486 -36.04023 -0.0047171679 0.011052927 0.99992776 0.0028936784
13.292469 30.905247 -36.025406 -0.044527426 0.091769792 0.99478418 0.0019404001
13.292469 34.205032 -36.086597 -0.020609582 -0.049194816 0.99857658 0.0017661069
13.292469 34.253838 -36.096836 -0.027154889 -0.046853777 0.99853259 0.001605816
13.292469 34.302181 -36.090073 -0.027154889 -0.046853777 0.99853259 0.001605816
13.292469 38.429104 -35.04451 -0.29589126 -0.17258914 0.93950057 0.009637163
13.292469 38.478054 -35.048084 -0.29589126 -0.17258914 0.93950057 0.009637163
13.292469 40.387344 -35.08387 -0.098011635 -0.067251623 0.99291033 0.002529565
13.292469 40.631512 -35.154903 -0.066497736 -0.049054954 0.99658 0.00095122575
13.292469 44.554035 -35.119617 -0.094960146 0.023676155 0.99519944 0.0072281533
13.292469 44.603123 -35.119392 -0.094960146 0.023676155 0.99519944 0.0072281533
13.292469 48.235336 -35.177834 -0.35153562 0.32081041 0.87949044 0.020614084
13.292469 50.525326 -36.203011 -0.048825908 0.061534241 0.99690998 0.0018472361
13.292469 51.016491 -36.177128 -0.043281216 0.049625188 0.99782968 0.0019126998
13.292469 51.064735 -36.186749 -0.043281216 0.049625188 0.99782968 0.0019126998
13.445607 30.710367 -36.003551 -0.040237878 0.079384431 0.99603158 0.0017564927
13.445607 32.361584 -36.077843 -0.019661255 -0.022580223 0.99955165 0.0003901532
13.445607 33.039227 -36.042515 -0.038388029 0.030239962 0.99880522 0.0015093264
13.445607 33.380985 -36.109104 -0.024548514 0.079611026 0.99652368 0.00088804902
13.445607 34.738186 -36.057194 0.0093907127 0.035646554 0.99932033 0.0011564574
13.445607 38.429264 -35.108635 -0.15117891 -0.24387068 0.95795202 0.0145571
13.445607 39.848293 -35.144566 -0.059304155 -0.019387685 0.99805164 0.001492336
13.445607 39.897274 -35.139141 -0.059304155 -0.019387685 0.99805164 0.001492336
13.445607 40.142193 -35.119686 -0.049575288 -0.0061180266 0.99875164 0.0014610369
13.445607 40.289246 -35.100437 -0.049575288 -0.0061180266 0.99875164 0.0014610369
13.445607 44.849426 -35.094288 -0.033249952 -0.0013708145 0.99944609 0.0058400189
13.445607 45.341091 -35.076935 -0.05559073 0.028467631 0.99804771 0.0033688357
13.445607 51.305569 -36.239353 -0.049930297 0.054713126 0.99725294 0.0014519711
13.445607 52.488483 -36.138672 0.0073429798 0.038134459 0.99924564 0.0032076412
13.445607 53.759689 -36.173183 0.020163737 0.037705719 0.99908543 0.00036723574
13.445607 56.939198 -36.25985 0.048077609 0.00070181297 0.99884337 0.0013230193
13.592259 29.545563 -35.964699 0.010244222 0.0084655685 0.99991161 0.0020221747
13.592259 29.886673 -36.002254 -0.039979793 0.011715905 0.9991318 0.0014749919
13.592259 32.990742 -36.043175 -0.033043616 0.029737517 0.9990114 0.00044443418
13.592259 33.039566 -36.052357 -0.033146817 0.029754288 0.99900752 0.0012314855
13.592259 38.429188 -35.077839 -0.15117891 -0.24387068 0.95795202 0.0145571
13.592259 42.934971 -35.126919 0.0063780472 -0.013452583 0.99988919 0.0018804013
13.592259 44.556686 -35.040867 0.0068847467 -0.021039968 0.99975497 0.0061955987
13.592259 44.605797 -35.040627 0.0068664188 -0.021039059 0.99975508 0.006195663
13.592259 52.484844 -36.183594 0.004534218 0.026516028 0.99963808 0.0023139515
13.592259 53.413372 -36.210537 0.0021117094 0.015667966 0.99987501 0.0015223887
13.592259 53.903336 -36.211308 0.0059020524 0.020725554 0.99976778 0.0021145409
13.592259 54.291222 -36.257401 0.014315371 -0.00071713794 0.99989724 0.00055389898
13.753508 31.005434 -36.095543 -0.058627971 0.078597791 0.9951809 0.0039276397
13.753508 31.198114 -36.07151 -0.058560219 0.078710921 0.99517602 0.0034351042
13.753508 31.24612 -36.061619 -0.058727566 0.078916453 0.99514979 0.0044175051
13.753508 32.360275 -36.043903 0.0038517066 -0.028776806 0.99957848 3.1794578e-05
13.753508 32.408398 -36.034203 -0.0089714816 -0.0015131007 0.99995863 0
13.753508 32.456646 -36.027706 -0.0091831191 -0.0026485072 0.9999544 0
13.753508 34.495796 -36.070351 0.0005733195 0.0087551279 0.99996161 0.0014905147
13.753508 35.468529 -36.154278 -0.01125781 0.034009788 0.99935806 0.00056003808
13.753508 35.516907 -36.146069 0.0053716069 0.021944989 0.99974471 0.0011626559
13.753508 36.817886 -35.299908 -0.16141719 -0.10577358 0.98120153 0.0019845644
13.753508 37.597965 -35.130947 -0.16172205 -0.065679349 0.98464829 0.0030717498
13.753508 44.996792 -35.092129 -0.031073594 -5.0593881e-05 0.99951708 0.0067305211
13.753508 51.112057 -36.209007 -0.031869005 0.017501526 0.99933875 0.0014593973
13.753508 51.160866 -36.21077 -0.030891063 0.014746003 0.99941397 0.0014847256
13.753508 54.689423 -36.192513 0.0097254468 -0.018898875 0.9997741 0.00078648096
13.753508 55.764133 -36.236168 -0.032336917 0.031544756 0.99897909 0
13.753508 56.107204 -36.239296 -0.020134356 0.03857737 0.99905276 0.00087814487
13.753508 56.889908 -36.261829 -0.018005306 -0.0098624248 0.99978924 0.00056951103
13.887094 28.869991 -36.006279 -0.010984124 0.0011275106 0.99993896 0.0017042593
13.887094 29.595829 -35.997913 -0.013331185 0.010161153 0.99985945 0.00099031604
13.887094 31.732449 -36.101776 -0.0069254655 -0.0099575641 0.99992645 0.0016872979
13.887094 32.118469 -36.059719 -0.026742395 -0.027878881 0.99925357 0.0011238117
13.887094 32.166672 -36.052715 -0.087630145 -0.037070937 0.99546307 0.0012685718
13.887094 32.748306 -36.045647 0.066596456 0.03537526 0.99715269 0.00043063652
13.887094 37.304379 -35.102779 -0.16174458 -0.065894648 0.98463017 0.0036197873
13.887094 49.945358 -36.096565 -0.32263801 0.31147796 0.89380431 0.055357635
13.887094 52.192802 -36.160694 0.084754474 0.066118062 0.99420571 0.0026736294
13.887094 52.386639 -36.186684 0.036865368 0.011803273 0.99925059 0.0020804182
13.887094 52.726818 -36.219296 0.040570725 0.0055386391 0.99916142 0.0027395596
13.887094 55.959179 -36.247696 -0.020267567 0.038161639 0.999066 0.0009017869
14.03724 31.58445 -36.040821 -0.028308531 0.0053734388 0.99958485 0.00087884883
14.03724 31.632706 -36.035748 -0.029354582 0.0056841546 0.99955285 0.00085155555
14.03724 32.991547 -36.06636 0.058982316 0.042237844 0.99736512 0
14.03724 38.331444 -35.114697 0.017404363 -0.027704809 0.99946469 0.0017907921
14.03724 39.946354 -35.119228 -0.019498235 -0.017877784 0.99965006 0.0020903198
14.03724 41.660412 -35.133808 0.020231625 0.0047817053 0.99978387 0.0018781188
14.03724 43.719677 -35.126854 0.0005037493 -0.027364453 0.99962533 0.0043996763
14.03724 46.811821 -35.145061 -0.01371036 0.021649528 0.99967158 0.00037830876
14.03724 52.236084 -36.232346 0.037127603 0.012553959 0.9992317 0.0035947482
14.03724 56.201584 -36.275589 -0.020975791 0.037467144 0.99907762 0
14.200355 29.062229 -35.981979 -0.0031819916 -0.02864543 0.99958456 0.0016568302
14.200355 29.110756 -35.98378 -0.0034043049 -0.028720507 0.99958169 0.0016557452
14.200355 29.257475 -36.009117 -0.0052416343 -0.020250963 0.99978119 0.0017282125
14.200355 30.757875 -35.983727 0.035420373 0.075042918 0.99655104 0.0026138888
14.200355 33.912258 -36.030918 0.0091919843 -0.0023890503 0.99995494 0.0022775915
14.200355 34.5452 -36.10408 0.028117638 0.013046665 0.99951941 0.0017930915
14.200355 47.500751 -35.125996 -0.035908394 -0.0032704873 0.99934971 0.0007024426
14.200355 51.69883 -36.216328 -0.06375663 -0.0047558863 0.99795419 0.0017497682
14.200355 53.416218 -36.17762 0.023723278 0.0054000434 0.99970394 0.0010176734
14.200355 53.804661 -36.218716 -0.0049483557 0.039264362 0.99921662 0.00075225928
14.200355 53.853661 -36.218773 -0.0053004697 0.038620356 0.99923986 0.00078365183
14.200355 53.901737 -36.229156 -0.0052092397 0.039231695 0.99921656 0.00075132871
14.200355 54.589634 -36.210896 0.024167167 -0.018824082 0.99953073 0.0011245831
14.200355 55.57439 -36.171215 -0.010485679 0.022866491 0.99968356 0.00093139848
14.200355 56.647953 -36.229721 -0.016779888 -0.0086806118 0.99982154 6.3654625e-05
14.349177 32.74992 -36.090141 0.067526154 -0.054567162 0.99622422 0
14.349177 32.798676 -36.097549 0.041160554 0.034007639 0.9985736 0.0022875946
14.349177 33.284161 -36.114182 0.034401767 -0.034996934 0.99879515 0.002754906
14.349177 35.078472 -36.075336 -0.053246848 -0.024105392 0.9982903 0.0013726181
14.349177 35.612736 -36.080627 -0.37317908 -0.49012634 0.78772688 0.037562169
14.349177 37.646729 -35.112339 -0.038532477 -0.072580993 0.99661785 0.004523491
14.349177 37.793411 -35.109524 -0.038532477 -0.072580993 0.99661785 0.004523491
14.349177 37.988739 -35.051285 0.0098154368 -0.02088704 0.99973369 0.0013487086
14.349177 41.71035 -35.07803 0.030896233 0.015415156 0.99940372 0.0031058153
14.349177 43.868187 -35.081627 -0.017836014 -0.034924656 0.9992308 0.00089261512
14.349177 49.904808 -35.218781 -0.53495967 0.1637253 0.82886195 0.057582971
14.349177 50.722706 -36.179249 -0.054548237 0.055498742 0.99696761 0.0014106594
14.349177 51.35965 -36.170078 0.00070539967 0.0005942618 0.99999952 0.0021427034
14.349177 51.557529 -36.142899 -0.062649623 -0.0046808352 0.99802458 0.0017835702
14.349177 53.073765 -36.170982 0.013115181 0.0031486903 0.99990904 0.0017973962
14.492034 30.323435 -36.017426 0.04924487 0.0029187503 0.99878252 0.00027112477
14.492034 30.372118 -36.022125 0.060185615 0.03358091 0.99762225 0.0016924504
14.492034 31.827526 -36.057674 -0.0045901248 -0.016693566 0.99985015 0.0019500771
14.492034 32.021465 -36.058537 -0.012806657 0.009946744 0.99986857 0.00055504608
14.492034 36.084705 -35.240036 -0.34584239 -0.49463668 0.79732519 0.011275776
14.492034 36.133476 -35.236835 -0.34595662 -0.4943262 0.79746825 0.011436341
14.492034 38.771736 -35.096443 0.0020463653 -0.023963982 0.99971074 0.00047598398
14.492034 41.90538 -35.135918 0.028048385 0.016080355 0.99947715 0.0038183632
14.492034 42.347073 -35.106766 -0.019675205 0.010090432 0.9997555 0.004808764
14.492034 42.396008 -35.111099 0.024735203 -5.9161732e-05 0.99969405 0.004102746
14.492034 42.444965 -35.114162 0.024735203 -5.9161732e-05 0.99969405 0.004102746
14.492034 42.493931 -35.11692 0.024954354 -0.0013726836 0.99968761 0.0033975756
14.492034 56.938274 -36.268429 -0.018334981 -0.011892385 0.99976116 0.00051350234
14.492034 57.337009 -36.21283 -0.025556194 -0.02911759 0.99924922 5.8230471e-05
14.492034 57.384727 -36.22538 -0.025556194 -0.02911759 0.99924922 5.8230471e-05
14.636735 30.520561 -36.084812 0.059234273 0.032592013 0.9977119 0.00077096815
14.636735 30.664955 -36.066204 0.060191773 0.033609577 0.99762082 0.0016927796
14.636735 31.680981 -36.031055 0.018787265 -0.031933077 0.99931341 0.0010266248
14.636735 32.021481 -36.058941 0.020741042 -0.0068878839 0.99976116 0.00022398919
14.636735 33.040958 -36.092697 0.0042061578 0.025981518 0.99965352 0
14.636735 33.089138 -36.083416 0.0041778693 0.02613139 0.99964982 0
14.636735 33.137978 -36.093506 0.0041778693 0.02613139 0.99964982 0
14.636735 33.622116 -36.064671 0.060187701 -0.030165158 0.99773115 0.0022662506
14.636735 34.4002 -36.126358 0.041041791 -0.00085147505 0.99915707 0.0015501928
14.636735 40.58329 -35.081844 -0.0043761721 -0.014771187 0.99988127 0.0021224355
14.636735 41.121674 -35.121471 0.0066279666 0.017642079 0.99982238 0.0022978394
14.636735 42.394825 -35.167648 0.024850368 -0.0013109685 0.99969029 0.0026774914
14.636735 42.443909 -35.163998 0.029261526 -0.088681802 0.99563003 0.0031174775
14.636735 48.33828 -35.095314 0.02490261 0.014549744 0.99958396 0.0034027612
14.636735 53.067493 -36.245213 0.0027460882 0.020251567 0.99979115 0.00051873911
14.636735 55.669594 -36.20052 -0.0056967046 0.03464644 0.99938339 0.0016608975
14.789539 28.968714 -36.038662 0.03059604 0.0044199601 0.99952203 0.0010070632
14.789539 31.296053 -36.094471 0.089036949 -0.0025023294 0.99602515 0.0012097318
14.789539 31.536621 -36.055588 0.011935361 -0.033188339 0.99937779 0.0014890723
14.789539 32.944263 -36.101036 -0.016798822 0.056261484 0.99827474 0.00022677451
14.789539 32.993019 -36.108608 0.0042061578 0.025981518 0.99965352 0
14.789539 33.041397 -36.105339 0.0042061578 0.025981518 0.99965352 0
14.789539 33.090038 -36.109791 -0.00016762424 -0.038915008 0.99924254 0.00079385896
14.789539 33.671692 -36.099026 0.063306108 -0.028369628 0.99759084 0.0040224032
14.789539 33.720482 -36.108162 0.06311661 -0.028413152 0.99760163 0.0031422353
14.789539 34.690422 -36.088886 0.042554758 -0.00089710054 0.99909371 0.0015169157
14.789539 40.044083 -35.146317 -0.019553712 0.018224049 0.99964273 0.0015910479
14.789539 48.240097 -35.091991 0.019224303 0.026773579 0.9994567 0.0039214287
14.789539 48.48336 -35.138939 0.020722847 0.022868628 0.99952364 0.0045717079
14.789539 49.273579 -35.086479 -0.025517173 0.022094859 0.99943018 0.0054710032
14.789539 57.187416 -36.23391 -0.013508048 -0.0029695129 0.99990445 0.00072270026
14.941902 29.401766 -35.991768 0.021961944 0.0020818447 0.99975669 0.00054683303
14.941902 29.937208 -36.041862 0.059904911 0.048863344 0.99700743 0.0010756971
14.941902 29.986052 -36.049736 0.058872253 0.077430144 0.99525803 0.00067829218
14.941902 30.17981 -36.050522 0.019106308 0.034461699 0.99922335 0.0011298779
14.941902 34.545147 -36.102016 0.0067447121 -0.0029411374 0.99997294 0.00074604951
14.941902 34.593826 -36.107807 0.041849207 -0.0014164753 0.99912292 0.0015327994
14.941902 35.03001 -36.079239 -0.052707098 -0.023741012 0.99832767 0.0017085777
14.941902 40.974903 -35.106445 -0.023403669 0.0068120235 0.99970287 0.0032461004
14.941902 41.611538 -35.126198 0.012530852 0.026770197 0.99956304 0.0031395198
14.941902 42.837875 -35.085735 0.047201551 -0.13283122 0.99001408 0.0022813766
14.941902 46.223232 -35.124645 -0.01846659 0.018200723 0.99966383 0.0011723292
14.941902 46.272263 -35.126785 -0.01846659 0.018200723 0.99966383 0.0011723292
14.941902 48.14122 -35.101284 0.0039929189 0.055945642 0.99842584 0.0026329337
14.941902 48.189846 -35.111332 0.0041194311 0.055431955 0.99845397 0.0026611739
14.941902 49.76479 -35.101639 -0.037473861 0.019200502 0.99911308 0.0057274709
14.941902 50.349327 -35.193043 -0.33177817 0.21920949 0.91753495 0.065023698
14.941902 55.176521 -36.226768 0.036834046 -0.0089233946 0.99928159 0.00018448042
15.245173 29.694401 -36.029278 0.017123226 0.030811299 0.99937856 0.0017348938
15.245173 32.361191 -36.067646 0.027594911 0.060453199 0.99778944 0.0013574122
15.245173 32.651958 -36.063232 -0.033524346 0.044338029 0.99845397 0.0015832338
15.245173 40.925144 -35.169704 -0.022072736 0.037482269 0.99905354 0.0020837307
15.245173 41.073322 -35.073067 -0.02249884 0.038478047 0.99900615 0.0016134476
15.245173 42.738564 -35.139244 0.050268415 -0.13877155 0.98904788 0.0014860661
15.245173 42.93655 -35.061348 0.015218339 -0.074075803 0.99713653 0.0010956387
15.245173 43.819412 -35.071491 0.0020200037 -0.0066388086 0.99997592 0.00059469067
15.245173 47.059654 -35.100376 0.031013945 -0.03142054 0.99902493 0.0013368364
15.245173 49.321304 -35.110489 0.0095459307 -0.024737822 0.99964839 0.0039393068
15.245173 53.946548 -36.275909 0.0093808193 -0.0098061357 0.99990791 0.00098299608
15.245173 56.109501 -36.216896 0.02793099 -0.025866911 0.99927509 0.00021380813
15.245173 56.304596 -36.228291 -0.00085799105 0.013531629 0.99990815 0.00075254933
15.391346 29.066004 -36.046906 0.0015938091 0.0016028876 0.99999744 0.0065712263
15.391346 29.309925 -36.080215 0.014310682 0.0077274707 0.99986774 0.0043277601
15.391346 30.664549 -36.057831 -0.043612741 0.018170886 0.99888325 4.6464706e-05
15.391346 31.538864 -36.107224 -0.038274299 -0.023865141 0.99898225 0.0033854339
15.391346 32.116913 -36.020802 0.016467709 0.012043981 0.99979186 0.0035709601
15.391346 32.556023 -36.091309 -0.0049650427 0.018907405 0.99980891 0.0022364163
15.391346 39.212261 -35.061832 -0.017111134 0.0087445183 0.9998154 0.00061944535
15.391346 39.261211 -35.06361 -0.017219648 0.0075584799 0.99982321 0.00079823466
15.391346 41.709579 -35.123852 -0.033799335 0.034607526 0.99882925 0.0022211026
15.391346 43.328716 -35.072567 -0.017427461 -0.035929095 0.99920243 0.0009865982
15.391346 46.812466 -35.131302 0.0095942635 -0.025472417 0.9996295 0.00068363611
15.391346 49.067356 -35.241863 0.0095341755 -0.02712445 0.99958658 0.0038886557
15.391346 49.812248 -35.128891 0.011027455 0.030817803 0.99946415 0.004720388
15.391346 51.550072 -36.241699 -0.18615788 0.32769656 0.92626143 0.040631376
15.391346 52.828053 -36.179836 0.023419935 0.013854126 0.99962968 0.00094703864
15.391346 53.411602 -36.230953 -0.0025953848 0.039143309 0.99923027 0.0014331187
15.391346 53.946743 -36.273727 -0.032468118 0.030962594 0.99899316 0.0012223766
15.391346 55.714279 -36.244186 0.035956722 -0.0030099934 0.99934888 0.0003150765
15.547022 28.821756 -36.009216 -0.042389095 0.03533984 0.99847591 0.0016844966
15.547022 29.840567 -36.045811 0.0024186012 0.009311554 0.99995363 0
15.547022 31.680519 -36.020248 0.036195807 0.048827618 0.99815118 0.003552458
15.547022 33.234303 -36.073315 -0.026252821 0.038843803 0.99890035 0.00088953465
15.547022 35.984459 -35.086124 -0.096577749 -0.0055599455 0.99530989 0.0011595335
15.547022 40.828484 -35.060234 -0.028699499 0.043155316 0.99865609 0.0022612049
15.547022 41.31786 -35.106113 -0.033998162 0.031554028 0.99892366 0.003216706
15.547022 42.591194 -35.152702 -0.03277044 -0.04953685 0.99823451 0.0013034496
15.547022 44.457363 -35.07486 0.011948942 -0.0029108105 0.99992436 0.00050262903
15.547022 45.48822 -35.082355 -0.0048039886 0.02252909 0.99973464 0.00017529954
15.547022 46.912785 -35.08828 0.0075270981 -0.025888259 0.99963653 0.0020079562
15.547022 47.35461 -35.099731 3.6772119e-05 -0.016646748 0.99986136 0.0015159107
15.547022 47.797497 -35.091984 0.018067297 0.0026736071 0.99983323 0.00072306878
15.547022 57.388126 -36.194527 0.01679625 0.011578349 0.99979186 0.00078285922
15.699961 28.921774 -36.063473 -0.056474537 0.032801315 0.99786502 0.0049388246
15.699961 29.061497 -35.969353 -0.049621556 0.035513069 0.99813652 0.0056180512
15.699961 29.451912 -36.022518 -0.030082138 0.03461409 0.99894786 0.006821007
15.699961 29.500755 -36.030128 -0.030809494 0.034563947 0.99892747 0.0067937542
15.699961 29.549582 -36.037472 -0.031617519 0.029749475 0.99905717 0.0042718956
15.699961 36.033062 -35.070473 -0.096508309 -0.0055722245 0.99531651 0.0014874231
15.699961 36.81506 -35.064957 -0.086227126 -0.02793411 0.99588376 0.0018653712
15.699961 44.555382 -35.07959 0.01846458 -0.0052869301 0.99981552 0.00072568818
15.699961 46.714245 -35.130337 0.0073565557 -0.022033134 0.99973017 0.0015931065
15.699961 47.156464 -35.130863 0.016751811 -0.014174366 0.99975914 0.0017233738
15.699961 47.205883 -35.125259 0.016653817 -0.01404762 0.99976265 0.00079314783
15.699961 48.978069 -35.090755 0.011600485 -0.020417426 0.99972421 0.004576683
15.699961 49.223507 -35.100464 0.015275249 -0.021545464 0.99965119 0.0054063788
15.699961 54.342201 -36.235962 -0.058818899 0.019399095 0.99808013 0.00061878329
15.699961 55.076107 -36.251015 0.013489568 0.033752047 0.99933916 0.0012075886
15.699961 55.125099 -36.251419 0.018922105 0.042316571 0.99892503 0.0018125792
15.699961 55.321659 -36.24704 0.018712619 0.041903198 0.99894643 0.0025369772
15.699961 56.204159 -36.250629 0.0074568838 0.0017629124 0.99997056 0.0020232929
15.841061 31.097807 -35.997543 -0.062904187 0.012473441 0.99794161 0.00084756024
15.841061 31.24552 -36.04834 -0.061771348 0.01376158 0.99799544 0.0024106021
15.841061 31.293625 -36.040386 -0.0051562195 0.070331812 0.99751037 0.0038946529
15.841061 31.633032 -36.043388 0.0252534 0.048135392 0.99852151 0.0055659302
15.841061 32.024223 -36.126522 0.017765258 0.008526193 0.99980587 0.0034047638
15.841061 33.525379 -36.07399 0.013318529 0.015980871 0.99978358 0.00053518813
15.841061 33.866165 -36.1133 0.01184935 0.011880811 0.99985921 0.00028019288
15.841061 39.750645 -35.098614 -0.029464178 0.019831359 0.99936908 0.00089346949
15.841061 41.660805 -35.110214 -0.03729219 0.033281956 0.99875003 0.0013076495
15.841061 48.729469 -35.135345 -0.005327716 0.016136408 0.99985564 0.002519334
15.841061 50.893742 -35.150486 -0.26893625 0.22661562 0.93611896 0.043768063
15.841061 54.051445 -36.199402 -0.012330282 0.0053749103 0.99990958 0.0012109036
15.841061 57.382107 -36.249176 0.02330129 0.0033346072 0.9997229 0.0015611509
15.992132 30.856728 -36.024105 -0.056790672 -0.002098727 0.99838394 0.0023797508
15.992132 30.905407 -36.028805 -0.05560806 -0.001879879 0.99845093 0.0024091704
15.992132 31.391182 -36.054516 -0.0074446425 0.069802843 0.99753302 0.0046667489
15.992132 33.720924 -36.122684 0.013226814 0.016586998 0.99977499 0.00092042971
15.992132 36.571613 -35.138504 -0.013968387 0.014988753 0.99979007 0.0017393172
15.992132 39.457035 -35.066051 -0.0089626713 0.0097000962 0.9999128 0.00077677518
15.992132 41.51403 -35.095215 -0.038611054 0.017874895 0.99909443 0.0019356924
15.992132 53.458447 -36.255699 0.012633916 0.012937132 0.9998365 0.0014939882
16.163441 29.403633 -36.025028 -0.034785446 0.027004272 0.99902993 0.0023136251
16.163441 29.452034 -36.024693 -0.027714798 0.033230755 0.99906331 0.0023974967
16.163441 30.180563 -36.065144 -0.028282573 0.003402824 0.99959415 0.00078061974
16.163441 35.299343 -35.0308 -0.010183322 0.063789211 0.99791145 0.00080785149
16.163441 37.010448 -35.048088 -0.00258354 0.015512232 0.99987632 0.00081978401
16.163441 39.310116 -35.081764 0.0061984304 -0.014856655 0.99987036 0.00032419094
16.163441 52.526596 -36.272549 -0.02510543 0.017673196 0.99952859 0.0013609751
16.163441 53.168736 -36.206627 0.0048588025 0.0094209658 0.99994379 0.0013605997
16.163441 54.733921 -36.240582 -0.0028577417 0.034370966 0.99940503 0.0012695151
16.163441 55.076752 -36.244312 0.018414684 0.065911904 0.99765545 0.0013488943
16.163441 55.124958 -36.252853 0.020826591 0.075685844 0.99691421 0.0010427623
16.163441 56.5037 -36.201385 -0.0030808388 0.033061817 0.99944854 0.0027483152
16.163441 56.5513 -36.215466 -0.0038095906 0.033022504 0.99944735 0.0027445331
16.163441 57.231964 -36.275494 0.033541694 0.010311804 0.99938411 0.0029189563
16.31023 28.674721 -35.979156 -0.02596774 0.025688769 0.99933267 0.0014608242
16.31023 32.168102 -36.088745 -0.069240138 0.073893875 0.99485952 0.0013929474
16.31023 32.216423 -36.084831 -0.069315009 0.074063167 0.99484169 0.0013917241
16.31023 32.360931 -36.060894 -0.040341467 0.02754884 0.99880612 0.0017631014
16.31023 42.543568 -35.088871 -0.0088028423 -0.0042331312 0.99995232 0.0007046159
16.31023 42.592659 -35.086487 -0.0022357118 -0.0096090073 0.9999513 0.0010443382
16.31023 44.652889 -35.099304 -0.012844634 0.0075967968 0.99988866 0.00066650519
16.31023 47.108582 -35.105 -0.0039987429 -0.011632771 0.99992424 0.0013819856
16.31023 47.992519 -35.122993 0.0069406433 0.01194419 0.99990463 0.00071729615
16.31023 49.369102 -35.133228 0.0062354002 -0.0023473685 0.99997783 0.0024398088
16.31023 49.41766 -35.143517 0.0062354002 -0.0023473685 0.99997783 0.0024398088
16.31023 54.882442 -36.22541 0.015548394 0.053702559 0.99843585 0.0017212481
16.31023 54.931946 -36.220463 0.019666847 0.066945724 0.99756271 0.001324036
16.31023 55.269245 -36.28162 -0.038292423 0.0056560822 0.99925059 0.0019876289
16.31023 56.300659 -36.266251 0.028552586 -0.019469401 0.99940264 0.0033216912
16.31023 56.544865 -36.276646 -0.0038338588 0.033025064 0.99944723 0.0027444251
16.45133 33.962383 -36.085636 -0.14833629 -0.72695994 0.6704666 0.033048935
16.45133 35.349026 -35.07045 -0.024395071 0.0028332665 0.9996984 0.00067191973
16.45133 35.543995 -35.047764 -0.0091313096 0.06623289 0.99776244 0.00074538798
16.45133 38.576035 -35.110023 0.006963057 -0.022865796 0.99971431 0.00011880566
16.45133 38.722782 -35.069126 0.0069587403 -0.022880297 0.99971396 0.00029474002
16.45133 41.318348 -35.072495 -0.0033149177 0.025251849 0.99967569 0.0003262893
16.45133 44.062996 -35.129898 0.0042624958 0.00514916 0.99997765 0.0012075843
16.45133 44.310127 -35.074009 -0.01422984 0.015106325 0.99978465 0.00077976007
16.45133 52.04789 -36.134949 -0.28447694 0.51826733 0.80651832 0.058738168
16.45133 54.879131 -36.260132 -0.044378627 0.019388311 0.99882662 0.0027189457
16.45133 55.865273 -36.206165 -0.029546775 -0.013547885 0.9994716 0.0042347168
16.45133 56.056965 -36.250835 0.029748961 -0.015767403 0.99943298 0.0050697653
16.737177 29.886641 -36.001656 -0.036425773 0.085730188 0.99565232 0.00043815409
16.737177 39.70192 -35.052464 0.001062492 -0.0057552052 0.99998283 0.00051777635
16.737177 45.242592 -35.084316 0.013729377 -0.031515639 0.99940896 0.001005055
16.737177 45.291615 -35.086552 0.011457591 -0.03202403 0.99942142 0.00094034721
16.737177 47.502495 -35.091835 -0.010170897 0.041523322 0.99908578 0.00048524194
16.737177 48.189236 -35.122398 0.010610976 0.040988334 0.99910325 0.00064629165
16.737177 51.435448 -35.150192 -0.16138712 0.24183452 0.95680207 0.074736811
16.737177 54.045147 -36.269135 0.04458807 0.0045417389 0.99899513 0.00074580673
16.737177 56.551449 -36.214062 0.0087196417 -0.00204903 0.99995989 0.0028726452
16.737177 56.741142 -36.276402 0.0044223154 0.00047866078 0.99999011 0.0008900364
16.737177 57.13765 -36.240139 0.016624119 0.043098442 0.99893254 0.0016127807
16.896557 29.74144 -36.00367 -0.025279561 0.06063338 0.99783993 0.00043344518
16.896557 31.485428 -35.993221 -0.022871289 -0.016939688 0.99959493 0.0021509661
16.896557 33.382187 -36.146065 0.0073831053 0.045552995 0.99893463 0.00085395167
16.896557 35.445892 -35.028687 0.0097631533 -0.011519792 0.99988592 0.0018785127
16.896557 40.632404 -35.069748 0.0037223571 -1.5951067e-05 0.99999309 0.00042181005
16.896557 43.673683 -35.019344 -0.0096928775 -0.0037964277 0.99994576 0.00079585373
16.896557 51.683212 -35.130459 -0.16150184 0.2415891 0.95684475 0.074841671
16.896557 51.732571 -35.129211 -0.1613715 0.24192473 0.95678198 0.074859291
16.896557 52.922832 -36.218128 -0.035825904 0.047148068 0.99824524 0.00083749875
16.896557 53.902466 -36.220997 0.013153975 0.032147542 0.9993965 0.00087673037
16.896557 55.37516 -36.20158 -0.012299037 0.0074734609 0.99989647 0.0053681955
16.896557 55.422867 -36.21524 -0.015680622 0.0045693791 0.99986655 0.0053068059
16.896557 55.708515 -36.301693 -0.0017825972 0.0069255685 0.99997443 0.0029481242
17.07995 28.723278 -35.981533 0.0056753936 -0.023687284 0.99970335 0.0018223111
17.07995 30.520809 -36.089806 -0.03925091 0.054096207 0.99776399 0.0019299596
17.07995 30.569513 -36.095364 0.016305853 0.0090545416 0.99982601 0.002706527
17.07995 32.409313 -36.058125 0.0040320465 0.10026081 0.99495298 0.0001576559
17.07995 32.457417 -36.048038 0.0040320465 0.10026081 0.99495298 0.0001576559
17.07995 34.322807 -35.046593 0.02959566 -0.0064796908 0.99954093 0.0017467097
17.07995 35.103821 -35.026695 0.027067719 -0.012613469 0.99955404 0.0022169852
17.07995 35.642082 -35.066689 0.023282165 0.01328744 0.99964058 0.0019908084
17.07995 40.485229 -35.091877 0.0022646617 -0.0010686301 0.99999684 0.00031431374
17.07995 45.390823 -35.060947 0.048166141 -0.046516053 0.99775553 0.00084864232
17.07995 55.420902 -36.235176 -0.010217722 -0.0019346032 0.99994588 0.0032670654
17.189339 31.534355 -36.003445 0.05579482 0.023802139 0.99815845 0.00052578241
17.189339 31.583086 -36.009228 0.054423399 0.022868369 0.99825603 0.00095391856
17.189339 32.262444 -36.022106 0.040523898 0.047466841 0.99805039 0.0015891676
17.189339 32.310642 -36.014446 0.041404292 0.045688685 0.99809724 0.0016576302
17.189339 37.451004 -35.095974 -0.046366941 0.030906878 0.99844617 0.00077594002
17.189339 54.581608 -36.296688 -0.01429724 -0.024211701 0.99960458 0.0014281744
17.368057 28.678642 -36.044079 0.018001685 -0.021645673 0.99960363 0.0023757222
17.368057 28.7269 -36.041782 0.018001685 -0.021645673 0.99960363 0.0023757222
17.368057 28.775846 -36.050976 0.018001685 -0.021645673 0.99960363 0.0023757222
17.368057 31.342812 -36.056591 0.073715888 0.010363965 0.9972254 0.0011571787
17.368057 34.079174 -35.064526 -0.012959437 0.025213948 0.99959809 0.0035375422
17.368057 34.274342 -35.060101 -0.012959437 0.025213948 0.99959809 0.0035375422
17.368057 35.49448 -35.014656 0.017987123 0.028285978 0.99943805 0.00245239
17.368057 37.206436 -35.086433 -0.020869937 0.015826683 0.99965686 0.00084535993
17.368057 37.255234 -35.076054 -0.047586735 0.031696908 0.99836409 0.0011317102
17.368057 37.500015 -35.109924 -0.047190513 0.031080533 0.99840224 0.00075730728
17.368057 39.310085 -35.093353 0.014418966 -0.017375439 0.99974507 0.00093011663
17.368057 41.710258 -35.083569 -0.0029634302 0.0050797481 0.99998271 0.00020158548
17.368057 43.180721 -35.104774 0.0037263979 -0.0038071934 0.99998581 0.00092617032
17.368057 46.324505 -35.056065 0.031925749 -0.018320888 0.99932235 0.00091209653
17.368057 47.892979 -35.145596 -0.0039454293 0.061826922 0.99807906 0.00063264213
17.368057 56.402367 -36.231804 -0.041240081 -0.041443639 0.99828941 0.0014517675
17.368057 56.450275 -36.242924 -0.028589342 -0.060511038 0.99775803 0.00065508921
17.368057 56.498959 -36.246586 -0.027953355 -0.040654842 0.99878216 0.0010324323
17.495832 28.775656 -36.047787 0.017530603 -0.022240922 0.99959892 0.001428569
17.495832 29.595257 -35.987503 -0.0046472331 -0.018897247 0.99981064 0.00089574413
17.495832 30.372458 -36.028862 -0.0274259 0.051152494 0.9983142 0.0019395972
17.495832 32.166557 -36.04977 0.04052829 0.0491332 0.99796963 0.0029680254
17.495832 38.380299 -35.091858 -0.036106285 -0.011315514 0.99928385 0.00037696498
17.495832 38.429241 -35.098721 -0.035771586 -0.010778304 0.99930185 0.0003842588
17.495832 39.261173 -35.079796 0.013867682 -0.017410999 0.99975222 0.00069497002
17.495832 42.494339 -35.098091 0.020419111 0.011426215 0.99972624 0.0010711207
17.495832 45.686375 -35.04055 0.029851129 -0.025274957 0.99923468 0.00061363308
17.495832 46.962677 -35.072845 -0.0028343196 0.023610696 0.99971724 0.00072280562
17.495832 47.405109 -35.073193 -0.005960762 0.04420983 0.99900448 0.00065177266
17.495832 48.238586 -35.11919 -0.016758917 0.043618649 0.99890769 0.0014493013
17.495832 48.678024 -35.174286 -0.013643299 0.015945381 0.99977982 0.0014181362
17.495832 52.73175 -36.159481 -0.23157048 0.39093214 0.89081264 0.054941822
17.495832 56.502586 -36.21199 -0.024318205 -0.02015675 0.99950105 0.0016580716
17.640413 32.507046 -36.078152 0.035206191 0.07480935 0.99657613 0
17.640413 32.555435 -36.075535 0.069487467 -0.016084965 0.99745309 0.00048361628
17.640413 34.176899 -35.067619 -0.044145465 0.058446154 0.99731398 0.0023629596
17.640413 34.422348 -35.118397 -0.044097189 0.05838228 0.99731988 0.0019051043
17.640413 47.990612 -35.158367 -0.048621684 0.054835502 0.99731082 0.00097944855
17.640413 50.597 -35.169888 -0.073956572 0.016419921 0.99712628 0.00055557449
17.640413 55.760113 -36.276157 -0.051511683 -0.022860963 0.9984107 0.0023847281
17.820738 29.158674 -35.974972 0.032862645 -0.034501061 0.99886417 0.0018202621
17.820738 30.371614 -36.012131 -0.029401943 0.047425009 0.99844193 0.002456635
17.820738 30.907642 -36.076168 0.054988079 0.02127404 0.99826032 0.0031024008
17.820738 31.099478 -36.033855 0.055239744 0.003045537 0.99846846 0.0013899623
17.820738 31.148268 -36.041042 0.042633191 0.024837613 0.9987821 0.0016957342
17.820738 32.555363 -36.073647 0.068054989 -0.012104054 0.99760813 0.00045179395
17.820738 32.60379 -36.072025 0.068054989 -0.012104054 0.99760813 0.00045179395
17.820738 35.056763 -35.106953 0.042513829 -0.025065701 0.99878144 0.0019168232
17.820738 35.739185 -35.032944 0.050708376 0.00037958191 0.99871349 0.0013649771
17.820738 38.331497 -35.13092 -0.053370073 0.015656106 0.99845201 0.00022310746
17.820738 38.380398 -35.127041 -0.051782679 0.017483359 0.99850535 0.00042272391
17.820738 43.132828 -35.05912 0.037251122 0.0074697682 0.99927801 0.0018843893
17.820738 45.142006 -35.148258 0.028308004 -0.031754293 0.99909478 0.00035913757
17.820738 46.076336 -35.113903 0.02966488 -0.024006881 0.99927163 0.0010142161
17.820738 52.177639 -35.108513 0.17859598 -0.65355206 -0.73550874 0.028741362
17.820738 53.609299 -36.211327 0.015877243 0.032592233 0.99934262 0.0011796271
17.820738 53.995277 -36.27882 -0.0062955101 0.031939112 0.99947 0.0009500634
17.820738 54.489674 -36.231396 -0.015711885 0.015742393 0.99975264 0.0015060332
17.820738 55.618557 -36.220402 -0.052181851 -0.020416956 0.99842888 0.0015422325
17.820738 55.667667 -36.21983 -0.030030601 -0.02068688 0.99933487 0.0019445836
17.942841 32.991108 -36.053699 0.0011894064 0.032377146 0.99947506 0.0028247256
17.942841 34.127293 -35.039379 -0.042017106 0.064552136 0.9970293 0.0016839791
17.942841 34.762058 -35.03516 0.016653283 0.0011064012 0.9998607 0.0027796389
17.942841 35.985077 -35.122501 0.021867998 0.00089047581 0.99976051 0.0024274485
17.942841 37.352726 -35.041203 -0.015304246 -0.0010193121 0.9998824 0.00093321037
17.942841 37.988918 -35.086601 -0.022923669 0.032075163 0.99922252 0.0019333794
17.942841 39.309986 -35.130314 -0.017939374 -0.019654786 0.99964583 0.00046168643
17.942841 39.995529 -35.087326 0.0094436798 0.0087378267 0.99991727 0.00056611025
17.942841 49.171719 -35.142834 -0.017269509 -0.0047713742 0.99983948 0.001024213
17.942841 49.615208 -35.131908 -0.0041506803 -0.0019194223 0.99998951 0.0002853217
17.942841 49.664558 -35.129692 0.0059378264 0.01197811 0.99991059 0.00018775772
17.942841 49.713676 -35.131161 0.0059024659 0.011961685 0.99991101 0.00018771205
17.942841 50.647457 -35.152161 -0.072090857 0.016161839 0.99726713 0.00059452833
17.942841 50.792698 -35.186958 -0.051390581 0.0060091666 0.99866056 0
17.942841 51.485558 -35.138653 -0.03454107 -0.020898001 0.99918479 0.0011008632
17.942841 51.780636 -35.144932 -0.022717403 -0.015888734 0.99961567 0.00047208651
17.942841 53.024818 -36.170403 -0.11094863 0.45005083 0.8860839 0.056515489
17.942841 54.639683 -36.20002 -0.056341846 -0.012569387 0.99833244 0.001062009
17.942841 54.980408 -36.226425 -0.051703975 -0.0054971515 0.99864739 0.0023043365
18.085575 30.472557 -36.093376 0.018002763 0.013471124 0.99974716 0.00080917199
18.085575 31.537523 -36.076336 -0.035434656 0.028150365 0.9989754 0.0031200214
18.085575 31.683634 -36.093388 -0.036310587 0.026079383 0.99900025 0.0018698234
18.085575 31.731709 -36.084297 -0.035665084 0.028239617 0.99896473 0.0056689237
18.085575 31.779963 -36.079308 -0.035665084 0.028239617 0.99896473 0.0056689237
18.085575 31.82885 -36.089375 0.0061020958 0.0057793595 0.99996471 0.0026637998
18.085575 32.701836 -36.101151 -0.010972868 -0.015549416 0.99981892 0.0012805462
18.085575 38.03772 -35.062435 -0.022390736 0.033183314 0.99919844 0.0027216508
18.085575 41.514187 -35.085209 0.027864285 0.035731744 0.99897289 0.00083228288
18.085575 41.563339 -35.076241 0.027864285 0.035731744 0.99897289 0.00083228288
18.085575 47.797359 -35.094551 -0.041921332 0.050768312 0.99783027 0.00098927552
18.085575 50.1577 -35.115143 -0.016724013 0.013268986 0.99977207 0.0009322273
18.085575 53.706059 -36.225452 0.011033108 0.021600561 0.99970585 0.0017068082
18.085575 55.417789 -36.266788 0.0098414123 0.014795481 0.99984211 0.0028206976
18.085575 55.720501 -36.182121 0.022581114 -0.014554237 0.99963897 0.0033811613
18.265894 31.101562 -36.079136 0.014548698 -0.0013212271 0.99989331 0.00059845427
18.265894 31.538502 -36.098885 -0.10278264 -0.020569092 0.99449116 0.00075328402
18.265894 33.832745 -34.985138 -0.03804018 0.025308372 0.99895561 0.0025919264
