# .PCD v0.7 - Point Cloud Data file format
VERSION 0.7
FIELDS x y z
SIZE 4 4 4
TYPE F F F
COUNT 1 1 1
WIDTH 1537
HEIGHT 1
VIEWPOINT 0 0 0 1 0 0 0
POINTS 1537
DATA ascii
2.7173541 -2.0957563 1.9696734
-2.8879271 -1.9343324 1.9697951
-2.9293702 -1.8985575 1.9695101
-3.0846224 -1.7304511 1.9694046
3.1725948 -1.6400208 1.9686272
-3.1602323 -1.6342934 1.9681818
-3.1963379 -1.5898812 1.9696314
-3.3581898 -1.3687406 1.9691077
3.3716009 -1.3626035 1.9698781
-3.412008 -1.2688018 1.9686115
-3.4943419 -1.1236197 1.9688964
3.5000978 -1.1223718 1.9717078
-3.715595 -0.52069879 1.9691998
3.7564716 -0.31234625 1.9693092
-3.7700353 -0.099048711 1.9686475
-3.76421 0.21205609 1.9681798
-3.6858401 0.63172174 1.969555
3.6813776 0.68248099 1.968178
3.6370363 0.83286369 1.9691582
-3.297015 1.4657586 1.9699206
3.3095798 1.4706173 1.9684668
-3.0818841 1.7412229 1.9697579
-2.8006375 2.0238571 1.9688702
-2.5656037 2.216393 1.969932
-2.3175783 2.3859477 1.9691933
-2.1085935 2.5058258 1.9691554
2.0572603 2.535434 1.9683292
2.0079148 2.5609243 1.9689147
-1.9379224 2.5913765 1.9685078
-1.0980026 2.8941445 1.9685677
1.1107888 2.8935113 1.9687188
0.91549474 2.934803 1.9691907
-0.8392145 2.9476957 1.96854
0.72539318 2.9639513 1.968226
-0.65163416 2.9825656 1.9683744
-0.58312345 2.9897859 1.9693284
0.46362025 3.0007529 1.9688684
0.27103516 3.0196087 1.9687203
-0.19551791 -3.0123272 1.9745188
-0.1245693 -3.015135 1.9749327
-0.055927012 -3.0145431 1.971274
0.00062680582 -3.0181506 1.9705107
-0.25970095 -3.0060434 1.9746011
0.065869592 -3.0097489 1.9739261
0.13727038 -3.0077016 1.9776598
0.19946547 -3.0078981 1.9774468
0.26853517 -3.0068486 1.9748104
0.33082977 -3.0048923 1.9732596
-0.38660955 -2.9949372 1.9748151
-0.32106367 -2.9989014 1.9780582
-0.52450877 -2.9857254 1.9745734
-0.45237568 -2.9865491 1.9715101
0.46812764 -2.9883745 1.9710742
0.52976727 -2.9843705 1.9729384
-0.58237123 -2.9782557 1.9737408
0.59165913 -2.9766524 1.976774
-0.64841741 -2.9637384 1.9775628
0.65971243 -2.9673297 1.9774616
-0.7750752 -2.9524553 1.9709805
0.72680289 -2.9577157 1.9760911
0.78708941 -2.9516354 1.9753888
-0.84193105 -2.9315479 1.9733287
0.8508724 -2.9382589 1.9721915
-0.90591228 -2.9226229 1.9766233
0.91418207 -2.9206538 1.9768273
-0.9755801 -2.9127307 1.9738832
-1.0325537 -2.8985887 1.9781666
1.043124 -2.8996136 1.9752727
1.1067948 -2.8864009 1.9732347
-1.1657723 -2.8702531 1.975014
-1.2243683 -2.8481894 1.9709033
1.2297229 -2.8479025 1.9733419
-1.3463904 -2.8104351 1.9730579
1.3613751 -2.8106441 1.9746453
-1.4131002 -2.7913661 1.9706581
1.4205662 -2.7988083 1.9758793
-1.471068 -2.7721496 1.9707346
-1.5315404 -2.7551057 1.9781183
1.5430374 -2.7543497 1.9775978
-1.5848317 -2.7302802 1.9740831
1.6016172 -2.7345891 1.9780532
-1.6478453 -2.7036526 1.9716862
1.6621698 -2.7089126 1.9703332
1.7182053 -2.6818862 1.9708618
-1.766919 -2.6613653 1.973912
1.7716827 -2.6611428 1.9759808
-1.8219631 -2.6386988 1.9743168
1.8297075 -2.6348267 1.9724456
1.8921936 -2.6091092 1.9733533
-1.9432801 -2.5852494 1.9751451
1.9497505 -2.5833113 1.9710376
-1.9987298 -2.5501964 1.9736083
2.0023749 -2.55881 1.9712474
-2.0512562 -2.5291946 1.9752985
2.0556223 -2.5263178 1.9734656
2.1114507 -2.4990406 1.9769617
-2.1583622 -2.4704909 1.9715387
-2.2118661 -2.4403048 1.9717467
2.2186415 -2.4337986 1.9727707
2.2737408 -2.4074066 1.9706893
2.3286755 -2.3752232 1.9750222
-2.3693428 -2.3412213 1.9753425
2.3780215 -2.342169 1.970531
-2.4217801 -2.3082495 1.9748704
2.4331088 -2.3032353 1.9758124
2.4783652 -2.2727871 1.9701509
-2.5176892 -2.2351239 1.9774723
2.5305529 -2.2351756 1.9714607
-2.5649722 -2.2007923 1.9751581
2.5821798 -2.1991794 1.9769533
-2.619688 -2.1648571 1.9751189
2.6252415 -2.161602 1.970643
2.6710002 -2.1339421 1.9711803
-2.7082653 -2.0937564 1.9780622
-2.7536054 -2.0500274 1.9749668
2.7672839 -2.0547745 1.973218
-2.7995539 -2.0157132 1.9750834
2.8142903 -2.0104816 1.9768717
-2.8473909 -1.9800642 1.975224
2.8547752 -1.97777 1.9707806
2.8999014 -1.9401865 1.9701097
2.9394286 -1.8968356 1.9756691
-2.972333 -1.856268 1.9733461
2.9824021 -1.8500444 1.9739274
-3.0133562 -1.816743 1.9769032
3.0157788 -1.8096178 1.9725864
3.0537298 -1.7733495 1.9725549
-3.045943 -1.7684546 1.9751198
3.0944405 -1.727756 1.9732538
-3.1239228 -1.6850177 1.9723902
3.1347473 -1.681443 1.9745593
3.203022 -1.5955869 1.9781426
3.2361283 -1.5538204 1.9709089
-3.2302291 -1.5493875 1.9723743
-3.2631078 -1.5091339 1.9759401
3.2721581 -1.5092267 1.9711946
-3.2914741 -1.4573979 1.9777284
3.3065224 -1.4565363 1.9741762
-3.3295701 -1.4108157 1.9701406
3.3354402 -1.4114275 1.9727138
-3.3867519 -1.317656 1.9715885
3.3953965 -1.3145859 1.9709574
3.4281278 -1.2736989 1.9747362
-3.4440954 -1.2236634 1.9701742
3.4505167 -1.219419 1.9714068
-3.4735448 -1.1710036 1.9781358
3.4831603 -1.17327 1.9755629
3.5233498 -1.0814302 1.9714551
-3.5177667 -1.0754204 1.9776561
-3.5418539 -1.0242918 1.9776297
3.5487137 -1.0276109 1.9709059
3.5737159 -0.98184103 1.9779309
-3.5582383 -0.97524947 1.9741125
-3.5841978 -0.93183941 1.9748471
3.5906126 -0.92828095 1.9737618
-3.6027236 -0.87515205 1.9765768
3.6149535 -0.87868655 1.9716822
-3.618649 -0.82912093 1.9773211
3.6353598 -0.82441407 1.9704682
-3.6415622 -0.77272803 1.9741979
3.6457403 -0.77551013 1.9725859
-3.655987 -0.72832966 1.9732789
3.6687899 -0.72129005 1.9710386
3.6773944 -0.67046672 1.9773225
-3.6774225 -0.67035532 1.9740177
-3.6890988 -0.6260587 1.9715569
3.6990349 -0.61898631 1.9764785
-3.6959944 -0.57599485 1.9774638
3.7099087 -0.56651521 1.9721265
3.7201202 -0.5229696 1.9751227
-3.7205341 -0.46298456 1.972577
3.7318416 -0.46508208 1.9730906
-3.7333102 -0.4116804 1.9732388
3.741091 -0.41123611 1.9773394
3.7469897 -0.36271676 1.9731481
-3.7420421 -0.35892272 1.9783722
-3.748045 -0.31325045 1.9751554
-3.7527893 -0.26098248 1.9740719
3.7646599 -0.25913236 1.9744436
-3.7615566 -0.20899512 1.9753252
3.7646842 -0.20926706 1.9742123
-3.7603769 -0.1503998 1.9725418
3.7715335 -0.15611629 1.9727893
3.7735519 -0.095530443 1.971455
-3.7664638 -0.044421922 1.9707774
3.7761748 -0.04367831 1.9738897
-3.7692959 0.0066225999 1.9757757
3.7817321 0.0039276062 1.9743
3.7780614 0.055074841 1.9713254
-3.7721684 0.062024221 1.9722461
-3.7640233 0.11174185 1.9743899
3.7731197 0.11544212 1.9745393
-3.7624135 0.1590288 1.9783167
3.7692773 0.16293178 1.9764632
3.7662373 0.21596611 1.9734448
3.7605889 0.26467595 1.9765809
-3.7548957 0.271512 1.9713295
-3.7485476 0.31821421 1.9713055
3.7555871 0.3197355 1.9718114
-3.744133 0.37179798 1.9729769
3.7488103 0.37567466 1.9707938
-3.7267625 0.42801881 1.9721311
3.7428579 0.4264867 1.9749134
-3.7254622 0.47725365 1.972898
3.7289748 0.47927842 1.976035
-3.7096798 0.52786911 1.971498
3.7216508 0.52777082 1.9727435
-3.7013783 0.57705247 1.9716629
3.7073488 0.5845052 1.9735661
3.6963925 0.62900829 1.9719615
-3.6677148 0.68812191 1.9719288
-3.6585925 0.73217237 1.9746293
3.6656959 0.73790944 1.9737252
-3.6390038 0.78587383 1.9777842
3.6473246 0.78930479 1.9746522
-3.6184778 0.84090471 1.9747216
3.6123607 0.88696134 1.9774622
-3.6033552 0.89093709 1.9720185
-3.5856025 0.93480223 1.9707764
3.5947828 0.93305105 1.9732611
-3.5664876 0.98528391 1.9745787
3.5707295 0.98366159 1.9700285
3.5547974 1.0372894 1.9733539
-3.5434728 1.0413146 1.9725335
-3.5159531 1.0839236 1.9725944
3.5262055 1.0905172 1.9746976
-3.4936707 1.1395897 1.9757978
3.5040846 1.1340173 1.9713366
-3.4664626 1.1856037 1.9736726
3.4748735 1.1877257 1.9767126
-3.439986 1.2348804 1.9752024
3.4486127 1.2302828 1.974299
-3.4142549 1.2788789 1.9749397
3.4268494 1.2808681 1.9723977
-3.3908563 1.3272091 1.9752513
3.3954651 1.3282061 1.9732078
-3.3563223 1.3799866 1.9710418
3.3672287 1.3787755 1.9774083
-3.3225081 1.424317 1.9718616
3.3357389 1.4215442 1.9776428
-3.261246 1.5193584 1.9771467
3.2690001 1.5152972 1.9732528
-3.2312055 1.561613 1.9737221
3.2407506 1.5620871 1.9708846
-3.1974864 1.601866 1.9700326
3.2099292 1.6033622 1.9745106
3.169688 1.6491036 1.9726822
-3.1560211 1.6528974 1.9766225
-3.1236808 1.6876563 1.9763296
3.1318734 1.6943449 1.9750929
3.1006916 1.7346203 1.9701446
-3.0484896 1.7786379 1.9731318
3.0566671 1.7813374 1.9749792
3.0225229 1.818664 1.9732308
-3.0110691 1.8264912 1.9730299
-2.9687989 1.8603418 1.9744754
2.9816608 1.8643585 1.9775163
-2.9304907 1.9022435 1.9741763
2.9401276 1.9047531 1.9745719
-2.8875625 1.9438965 1.9750706
2.8985252 1.9464203 1.9704499
-2.8432615 1.9842254 1.971563
2.8508284 1.9826735 1.9777204
2.8098958 2.021914 1.9713421
-2.7515907 2.0670528 1.9717993
2.7617347 2.0656846 1.9762685
2.7209048 2.0973635 1.9725006
-2.7138884 2.1052656 1.9732721
-2.6628222 2.1412671 1.972898
2.6716588 2.1445253 1.9755865
-2.6168256 2.1716726 1.9730272
2.6266518 2.1752574 1.9724953
2.5756805 2.2103593 1.9743774
-2.5156639 2.2437332 1.9759998
2.532177 2.2440197 1.9701533
-2.4666679 2.2874517 1.9708681
2.4821904 2.2864621 1.97509
-2.4158547 2.3160717 1.9771408
2.4285049 2.3185 1.9710388
-2.3649406 2.3487711 1.9766483
2.3799586 2.3549094 1.9731764
2.3279593 2.3833117 1.9750932
-2.2709718 2.4194787 1.9736246
2.2788739 2.4173229 1.971935
-2.2164574 2.4426656 1.9758104
2.2240236 2.4451048 1.9722372
2.1647291 2.4790585 1.9721215
-2.1578937 2.482758 1.9732723
2.1178617 2.5042262 1.9758085
-2.0469661 2.5357428 1.9747285
-1.9984823 2.5652516 1.9767936
1.9437362 2.594974 1.9770306
-1.8859593 2.6148832 1.9774441
1.8939022 2.6146302 1.9729667
-1.82383 2.6477902 1.9780827
1.8394421 2.6457629 1.9717983
1.7765628 2.6656346 1.9762332
-1.7630296 2.6710446 1.9723569
-1.7050014 2.697619 1.9738206
1.7150605 2.6978598 1.9726049
-1.6537108 2.7158518 1.9766052
1.6598779 2.7173567 1.9754182
-1.5879951 2.7401135 1.9732308
1.6044937 2.740351 1.9715891
1.5385081 2.7599206 1.9730852
-1.5256766 2.7622728 1.9731541
-1.4656422 2.7867901 1.971469
1.4757422 2.7829688 1.9767084
-1.4121915 2.8073041 1.9752389
1.4150476 2.8013711 1.9775128
-1.3490838 2.819392 1.9737725
1.3545079 2.8208966 1.9748374
-1.2875917 2.8461411 1.9729604
1.2916722 2.8464768 1.975077
-1.2266605 2.8600936 1.97337
1.2343793 2.8640547 1.9705048
-1.1583357 2.8796222 1.9752553
1.175544 2.8757622 1.9706635
-1.0317097 2.9052677 1.9758267
1.0420686 2.904139 1.9727618
-0.96697599 2.9160504 1.9719051
0.98584491 2.9179428 1.9771159
-0.90641153 2.9308507 1.9757892
0.85636246 2.9484024 1.9733045
-0.7773422 2.9543359 1.9755731
-0.7183246 2.9641857 1.9763467
0.79059494 2.9612579 1.9756575
0.65729624 2.9745958 1.9779228
0.59923941 2.9891243 1.9776099
-0.52385527 2.9961467 1.9723089
-0.45603859 2.9990771 1.9706553
0.52643037 2.9963658 1.9722863
-0.39114559 3.0062225 1.9750322
0.39872521 3.0086551 1.9711139
-0.32049477 3.0134666 1.9769081
-0.2577745 3.0187337 1.9713749
-0.19272852 3.0176678 1.9750204
0.13564157 3.0186527 1.9740455
0.33775342 3.0128839 1.9730831
-0.13104038 3.0262256 1.9706037
-0.064635687 3.0263507 1.9736969
0.0014756909 3.027884 1.9762439
0.067284435 3.025398 1.9746232
0.20631155 3.020324 1.9756571
-0.19209498 -2.9834347 1.989085
0.07015717 -2.9862406 1.9898181
0.13321157 -2.9849865 1.9881866
0.20373411 -2.9896755 1.9897722
0.26202643 -2.9829154 1.9894558
0.46292642 -2.9661992 1.9891859
0.58823138 -2.9490154 1.9896181
0.97678947 -2.8913183 1.9890245
-1.091651 -2.8570881 1.9883983
1.1009809 -2.8572891 1.989719
1.1646407 -2.8437874 1.9890471
1.2261503 -2.8247783 1.9889709
1.348346 -2.7953494 1.9893136
-1.9838985 -2.5356791 1.9891808
2.1571152 -2.4540198 1.9890825
-2.4025443 -2.2930663 1.9879032
2.4094253 -2.2917151 1.9880471
2.4662397 -2.2589793 1.9895403
2.6983941 -2.0720437 1.9887074
-2.7792597 -1.9966981 1.9891514
2.9149587 -1.8830609 1.9887092
2.9933612 -1.8007165 1.9899479
3.0694709 -1.7177001 1.9894992
3.1061461 -1.6699834 1.9885296
3.1430674 -1.6246285 1.9887486
-3.173315 -1.5787232 1.989598
3.2822669 -1.4457384 1.98992
3.3688095 -1.3052832 1.9896894
3.5059981 -1.0669279 1.9879198
3.5258467 -1.0197954 1.9898651
-3.5607178 -0.92559952 1.9884189
3.5704143 -0.91613811 1.9898601
3.6570392 -0.66558582 1.9895152
-3.6569886 -0.61375815 1.989387
3.6811135 -0.5697192 1.9895246
-3.7256081 -0.25874174 1.9921143
3.7441034 -0.15041654 1.9908953
-3.7427924 -0.045637239 1.9897012
3.7527928 0.001364572 1.9905812
3.7461216 0.057845376 1.9890701
-3.7415829 0.061212569 1.9886246
3.7464886 0.11077587 1.9883285
3.7432568 0.21088324 1.9904475
3.7314684 0.32140747 1.9893883
3.7204037 0.37160319 1.9898535
-3.6998839 0.41952085 1.9891434
3.6677723 0.62630427 1.9919828
-3.6429095 0.67623502 1.9916058
3.6340692 0.72477132 1.9890553
3.5700362 0.93200743 1.9881264
3.5485117 0.97886837 1.988619
3.4738841 1.1236485 1.9882888
-3.3008056 1.4129581 1.9891239
3.073261 1.721588 1.9918592
2.9122694 1.8941942 1.9896748
-2.8167109 1.9722522 1.989542
-2.7319753 2.0482895 1.9898815
2.7401848 2.0436509 1.9895309
2.6525497 2.1233556 1.989319
2.6073816 2.1573505 1.9892713
2.5545957 2.2005496 1.9895357
-2.5004771 2.2362773 1.9886823
2.5118177 2.2323689 1.9889657
-2.3511879 2.3332515 1.9879159
2.3084724 2.3627863 1.9885374
2.2632494 2.3960438 1.9890419
2.2023821 2.4273801 1.9899001
-1.97912 2.5420172 1.989313
1.7029803 2.674238 1.9899558
1.2901607 2.8163228 1.9887617
-0.83440143 2.9208577 1.9889948
-0.77054751 2.9315369 1.9885635
0.7196905 2.9460688 1.9898965
-0.51246208 2.9677725 1.9881947
0.46078208 2.9745557 1.9882102
-0.26023516 2.9969599 1.9887793
-0.19534913 2.9921484 1.9888783
0.19663185 2.992193 1.9884142
-0.064759143 -2.9931383 1.9973284
-0.32422388 -2.9805169 1.9977331
-0.25558648 -2.9809835 1.9957606
-0.12865725 -2.9857943 1.9925007
0.0078465156 -2.9899702 1.9977509
-0.45334452 -2.9719069 1.9909168
0.33515915 -2.9766581 1.9933618
0.40008867 -2.9760106 1.9909034
-0.38786718 -2.969728 1.9958369
-0.58253926 -2.956872 1.9955795
-0.51128763 -2.9582992 1.9930856
0.52895129 -2.9573398 1.9973897
-0.64664948 -2.9498873 1.9948158
0.65216076 -2.9425392 1.9954708
-0.71051234 -2.9359536 1.9951109
0.71631455 -2.9382091 1.9945968
-0.76866275 -2.9269412 1.9964215
0.78231788 -2.9252632 1.9936082
-0.8416515 -2.9157159 1.9960027
0.84645438 -2.9161994 1.9956498
0.91191798 -2.9031899 1.9912597
-0.96499747 -2.8918467 1.9913416
-0.90230846 -2.8988066 1.996116
-1.0241023 -2.87485 1.9964468
1.0352715 -2.8786926 1.9924257
-1.1508993 -2.8416905 1.9910049
-1.2175359 -2.8318424 1.9944723
-1.2751946 -2.8054478 1.9975092
1.2895168 -2.8054378 1.9967412
-1.340596 -2.7881525 1.99746
-1.4027281 -2.7772596 1.9919634
1.4058925 -2.7724509 1.9944073
-1.4579051 -2.7477829 1.9970406
1.4720247 -2.7483799 1.9972479
-1.5170074 -2.7320457 1.9949654
1.5297511 -2.7315567 1.9908921
-1.5756353 -2.710243 1.9972736
1.5826234 -2.7123046 1.9933164
-1.6345135 -2.6845794 1.9939845
1.6427786 -2.6867237 1.9943938
-1.6997695 -2.6619043 1.9927412
1.7058347 -2.6672797 1.9920247
-1.7513249 -2.6386218 1.994776
1.765668 -2.6356959 1.9974339
-1.814446 -2.6132429 1.9925166
1.8242921 -2.6137779 1.9952617
-1.8713734 -2.5944097 1.9939103
1.8822869 -2.5893035 1.9949764
-1.9204339 -2.5624247 1.9920429
1.9374819 -2.5664287 1.9964687
1.9846634 -2.5360336 1.9916964
-2.034441 -2.5104332 1.9926548
2.0463324 -2.5091176 1.990986
2.1002207 -2.4836471 1.9962494
-2.0841737 -2.4759581 1.9970257
-2.1410701 -2.4507456 1.9970152
-2.2004712 -2.4224279 1.9977477
2.20578 -2.4224811 1.9949867
-2.2528038 -2.3846052 1.9946238
2.2548532 -2.3856378 1.9970051
-2.2959464 -2.3584812 1.9914428
2.3108692 -2.3562076 1.9964637
2.3615925 -2.3248713 1.9928917
-2.3497515 -2.3195856 1.993544
-2.4562221 -2.2581141 1.9906052
2.5137997 -2.2241004 1.9941083
-2.5028989 -2.219804 1.9955986
-2.5495496 -2.1853771 1.9932805
2.5558221 -2.1819968 1.9974989
-2.5969388 -2.1550043 1.9930923
2.6063566 -2.1498387 1.9975017
2.6513619 -2.1139917 1.9975165
-2.6459126 -2.1090989 1.990894
-2.6904902 -2.0779498 1.9940512
2.7405109 -2.0429268 1.99564
-2.733052 -2.0399649 1.9976546
2.7838109 -1.9990244 1.9901731
2.8357215 -1.9649376 1.9934936
-2.8194814 -1.9597961 1.9905159
2.8731992 -1.9228506 1.996712
-2.8596618 -1.9183797 1.9902215
-2.9039035 -1.8803259 1.9918389
-2.9500291 -1.8420944 1.9955865
2.9573259 -1.8440871 1.9909389
-2.9850945 -1.8027431 1.9963244
-3.028847 -1.7587018 1.9978406
3.0318761 -1.7536713 1.9951241
-3.0613992 -1.7114905 1.9902173
-3.0946193 -1.6688464 1.9966278
-3.1353536 -1.6231388 1.9954325
3.1759639 -1.5796332 1.994321
-3.200099 -1.5415239 1.9917654
3.2124259 -1.5355507 1.9948202
3.251231 -1.4959668 1.9976479
-3.240782 -1.4895288 1.9955937
-3.2725685 -1.4461516 1.9905295
3.3143017 -1.4033886 1.9902453
-3.3043137 -1.3971913 1.9932992
-3.3286324 -1.3515916 1.9931387
3.3375592 -1.3543625 1.9924598
-3.3604293 -1.3056586 1.992736
-3.391324 -1.2610891 1.9893078
3.3959522 -1.2574451 1.9939754
-3.4141493 -1.2178736 1.995349
3.4216058 -1.215939 1.9935246
-3.4372194 -1.1650416 1.9925209
3.4496841 -1.1666174 1.9925965
-3.4637573 -1.1171168 1.9908843
3.4755838 -1.1181 1.9905075
-3.4941404 -1.0644258 1.9917756
-3.5168109 -1.0195676 1.9939114
3.5474515 -0.97349775 1.9965299
-3.5337677 -0.96811402 1.9974631
-3.5802894 -0.87549138 1.9920002
3.5810201 -0.87474561 1.993073
-3.5956781 -0.82548392 1.9904944
3.6054502 -0.82209456 1.9933069
3.6247456 -0.77142155 1.9932344
-3.6141362 -0.76680458 1.9915392
-3.628999 -0.72355974 1.9919895
3.6335733 -0.71887189 1.9947464
-3.6484189 -0.67227697 1.995886
3.6660557 -0.62116975 1.9939409
-3.67186 -0.56376559 1.9942892
-3.680053 -0.513771 1.9976422
3.6925707 -0.51121968 1.9936346
3.7038858 -0.46279165 1.9930083
-3.6914201 -0.45957094 1.992725
-3.6986678 -0.41053623 1.9942226
3.714206 -0.41267329 1.9959128
-3.7167394 -0.36359277 1.9977784
3.7215514 -0.35938331 1.9925665
3.7291577 -0.31202129 1.9900091
-3.7220411 -0.30545959 1.9942062
3.7310283 -0.252395 1.9941764
-3.7257531 -0.20445113 1.9945786
3.7417138 -0.20023173 1.9903123
-3.7371187 -0.15029036 1.9931546
-3.7412529 -0.099454522 1.9922838
3.7467465 -0.095673785 1.9913616
3.7503879 -0.048074622 1.9889665
-3.7373745 0.0046417871 1.9941429
3.7467313 0.0097009037 1.9938403
-3.7356 0.11113589 1.9924963
-3.7342846 0.15974422 1.994797
3.7399001 0.16444737 1.9945396
-3.7302892 0.21416444 1.9961078
-3.7247996 0.26650196 1.9962209
3.7399523 0.26391897 1.9923989
-3.7163923 0.3145833 1.9950325
-3.7154644 0.36596954 1.9952362
3.7138655 0.41844952 1.995139
3.7059507 0.46914256 1.9964873
-3.6966691 0.47420821 1.9976889
-3.682173 0.52573794 1.991872
3.6894639 0.52796412 1.9978019
-3.673342 0.5750826 1.9926389
3.6785192 0.5803774 1.9923699
-3.6574979 0.62948889 1.992312
3.6524284 0.67724562 1.9972248
-3.6332779 0.7279824 1.9962739
-3.6136811 0.78344214 1.9953974
3.6184974 0.7847442 1.9914414
-3.599159 0.83533925 1.9976629
3.605588 0.83233327 1.9898049
-3.57214 0.88164538 1.9933307
3.5887606 0.8853212 1.9967138
-3.5554023 0.92763633 1.9922568
-3.5407178 0.98116142 1.9943061
3.525322 1.0297325 1.9963639
-3.5168753 1.033865 1.9941512
-3.4902794 1.080673 1.9909396
3.5023749 1.0818405 1.9953308
-3.4658024 1.1288363 1.9972931
-3.4389303 1.1732794 1.9931563
3.4505589 1.175583 1.9916208
-3.415864 1.2193872 1.9955008
3.423862 1.2240591 1.991637
-3.3856771 1.2739965 1.9950105
3.3978395 1.273149 1.9908829
-3.3632376 1.3170242 1.99252
3.3714354 1.3151443 1.99347
-3.3319838 1.3637516 1.9901253
3.3369343 1.3608609 1.9971479
3.3156087 1.4157795 1.9933951
-3.2686737 1.4525583 1.9948446
3.2846892 1.4594837 1.9969188
-3.2409065 1.5011232 1.9958345
3.243264 1.5013725 1.9920195
-3.2094166 1.546609 1.9941531
3.218596 1.5527468 1.9902531
3.1819172 1.589114 1.9916466
-3.1718893 1.5916814 1.9973373
-3.1387939 1.6392976 1.995999
3.1472287 1.6366837 1.9966682
-3.1014199 1.6761162 1.9908556
3.1054862 1.6837791 1.9933642
-3.0629845 1.7221569 1.9945343
-3.0200901 1.7615794 1.9928617
3.0369368 1.7708528 1.9924834
-2.9835413 1.8039328 1.9967078
2.9979208 1.8031955 1.9932691
-2.944576 1.8486921 1.9968607
2.9574208 1.8538429 1.992595
-2.903296 1.894343 1.9969138
-2.8591018 1.9273592 1.9922773
2.8697555 1.9347301 1.9931359
2.8314681 1.9731832 1.9929197
-2.7764313 2.0059354 1.9944824
2.7905536 2.0085082 1.9944894
-2.6867185 2.087395 1.99656
2.6940036 2.0819318 1.9974091
-2.644814 2.1200392 1.9964436
-2.5916638 2.1611691 1.9929188
-2.5472107 2.2008533 1.9901881
-2.4494669 2.2656128 1.9972668
2.4576025 2.2690444 1.9978275
-2.4022319 2.2976689 1.9952381
2.4097185 2.3040905 1.9968798
2.3645625 2.3325963 1.9946263
-2.2993207 2.3653417 1.9908885
-2.2448421 2.3958919 1.9975591
-2.1964767 2.4237881 1.997593
-2.1423984 2.4575591 1.9917655
2.1487219 2.4623344 1.9948889
-2.0877464 2.4863808 1.9913269
2.0963173 2.4879892 1.9972249
-2.0296526 2.5140142 1.9908158
2.0432277 2.5175107 1.9967682
1.9897808 2.541676 1.9928068
-1.9268022 2.5699501 1.9958006
1.9351594 2.5698018 1.9908751
1.8788124 2.5989604 1.9900321
-1.8647137 2.6017809 1.9903235
-1.8150458 2.6272333 1.9972483
1.8209475 2.6226044 1.994437
-1.7567877 2.648484 1.9971427
1.7602763 2.6505091 1.9964827
-1.6968883 2.6792638 1.9952329
-1.6350111 2.6984556 1.9920336
1.6456709 2.6988244 1.993664
-1.5818181 2.7155762 1.9969904
1.5887197 2.7221394 1.9919639
-1.5219136 2.7373316 1.9970719
1.5262752 2.7460859 1.9963032
-1.4631114 2.7591724 1.9942671
1.4657031 2.7606099 1.9913055
-1.3934319 2.7811911 1.9924496
1.4042283 2.7859695 1.9923795
-1.3373022 2.8023186 1.9912697
1.3483647 2.8015885 1.9942601
-1.2804948 2.8182278 1.9920855
-1.2154825 2.8327119 1.9950775
1.2207234 2.8392191 1.99116
-1.1538366 2.8511066 1.9970393
1.1653197 2.8580191 1.9965147
-1.0907291 2.868119 1.9959345
1.1016097 2.8666282 1.991455
-1.026812 2.8848131 1.9944737
1.0410388 2.8855462 1.9976513
0.97386169 2.8956268 1.9946529
-0.95929259 2.9036613 1.9936579
-0.89693546 2.9096389 1.9974293
0.91468918 2.911855 1.9939184
0.84958005 2.9265625 1.9968588
0.77921659 2.9392889 1.9951497
-0.71213579 2.9499652 1.9925407
-0.64730448 2.9573176 1.9922718
0.6518268 2.9549682 1.9910667
-0.57761633 2.9669776 1.994457
0.58826667 2.9651408 1.9976797
-0.44877896 2.9750674 1.9973402
0.5269264 2.9709888 1.9965018
-0.38631159 2.9802272 1.9966094
0.33417347 2.9889655 1.9958709
0.39943895 2.9893126 1.9939866
-0.31926525 2.9906516 1.9933218
-0.063178934 2.9956355 1.9934939
0.14033476 2.9951074 1.9973459
0.26580968 2.9918132 1.9908919
-0.12869498 3.000021 1.997815
0.0089696199 3.0036378 1.9972924
0.072288729 3.0016289 1.9926337
-0.12950747 -2.9685133 2.0079923
0.0084250737 -2.9690187 2.0083022
-0.37954187 -2.9542382 2.0079069
0.39042315 -2.9538126 2.0091126
-0.45218003 -2.9462686 2.0093002
-0.70589072 -2.9152193 2.009716
1.0322595 -2.8527293 2.0092182
1.1537248 -2.823945 2.0085182
1.2131934 -2.8060884 2.0093539
1.2776513 -2.7840292 2.0086148
1.4543037 -2.7313588 2.0073981
-1.5023084 -2.7090299 2.0079165
-1.6240934 -2.6716321 2.0078344
1.6381013 -2.6715715 2.0089834
1.8099989 -2.5909486 2.009022
1.858404 -2.5686026 2.0083036
2.1344783 -2.4282103 2.0074043
2.1841681 -2.3988476 2.0075698
2.2378917 -2.3669252 2.0075238
2.392797 -2.2734709 2.0076349
-2.3877828 -2.2672019 2.0096107
-2.5765634 -2.1364303 2.0075033
2.6297438 -2.100013 2.0086851
2.8125346 -1.9480348 2.0094378
2.8906615 -1.8688892 2.0085175
2.9306898 -1.8271534 2.0092041
2.9675779 -1.7856773 2.0088899
3.0147054 -1.7403796 2.0093203
3.0468585 -1.706055 2.0109565
-3.1503263 -1.5667652 2.0094867
-3.1774347 -1.5215838 2.0085213
-3.2489583 -1.4407974 2.0097482
-3.277005 -1.3914788 2.0080023
3.2837923 -1.3913512 2.0081453
3.3459837 -1.3011502 2.0090921
3.3740926 -1.2521302 2.0091038
-3.4356239 -1.1124367 2.0086622
3.4771869 -1.0576547 2.0100665
3.5001738 -1.0133532 2.0096915
3.5166981 -0.96197957 2.0096967
3.5567422 -0.86599892 2.010534
-3.5802271 -0.76150513 2.0094228
-3.6423314 -0.56088901 2.0079854
3.7223682 -0.04373882 2.0112717
-3.7112188 0.0035185379 2.0074382
3.7157776 0.054251011 2.0077965
-3.7109587 0.10886779 2.0083387
-3.7092764 0.16545132 2.0110776
3.7114975 0.16500169 2.0099542
-3.7009554 0.20815012 2.0112164
3.7085388 0.26659486 2.0107369
3.6944816 0.36801928 2.0087442
3.6529605 0.57352859 2.0090747
-3.6287851 0.62799084 2.0098403
3.5892372 0.77501124 2.0081215
-3.4452288 1.11711 2.0098343
3.3697956 1.2588421 2.0096557
3.3426065 1.3079379 2.009053
-3.3099699 1.3583772 2.0093772
3.2540979 1.4412231 2.0086193
3.1904216 1.537167 2.0098085
2.9684832 1.7891144 2.0079908
-2.9588785 1.7940272 2.0096641
2.9365444 1.8350548 2.0084937
2.8940315 1.8799088 2.0085816
2.7654073 1.9908539 2.008791
-2.7139556 2.0360951 2.0075548
2.7182677 2.0323544 2.0088303
-2.6711295 2.0718234 2.007499
2.6773732 2.0704229 2.0078804
-2.6267231 2.1035314 2.0076606
2.6281173 2.104475 2.0091362
2.490001 2.2104003 2.0084507
2.4425328 2.2511489 2.0076547
-2.3874319 2.2789907 2.0096872
2.3944101 2.2824419 2.0088391
-2.3345745 2.3197303 2.0099866
-2.2342739 2.3740633 2.0097153
-2.1787524 2.4147058 2.0092061
2.1883824 2.4112003 2.0078132
-2.125108 2.4413607 2.0084398
-2.0234618 2.4933999 2.007829
1.867794 2.5784235 2.0094154
-1.7403921 2.6289182 2.0095506
1.7538626 2.6258771 2.007468
1.6962055 2.6527288 2.0092959
1.5189359 2.7254519 2.0091794
-1.4430319 2.7368734 2.0098889
1.4542859 2.738642 2.0087907
-1.3287497 2.7763238 2.0088089
-1.1444448 2.8295081 2.008868
1.0932722 2.8433878 2.0094337
1.0329962 2.8623507 2.0079088
-0.89557528 2.8851643 2.0099289
0.59119421 2.938386 2.0076036
-0.57865965 2.9412558 2.0094082
0.45731619 2.9565485 2.0096936
0.52371126 2.9528775 2.0089979
-0.31895846 2.9629433 2.0087547
0.072462812 2.9762216 2.0095098
-0.31668225 -2.9608643 2.0109577
-0.25285119 -2.9634025 2.0130215
-0.19238475 -2.9645128 2.0105314
-0.058747347 -2.966769 2.0107379
0.067862995 -2.9643629 2.0101457
0.13763686 -2.9613056 2.0105624
0.2005015 -2.9683886 2.0147161
0.26713949 -2.9563646 2.0167732
0.33230525 -2.9551299 2.0171769
-0.51543021 -2.943234 2.0154657
0.46048638 -2.9458578 2.0131056
-0.57706451 -2.9341385 2.0123374
0.51792359 -2.9389153 2.0153611
0.5826624 -2.9351463 2.0107188
-0.63702565 -2.9198551 2.0119817
0.64996964 -2.9181583 2.0142798
0.71464473 -2.9156892 2.0120437
-0.7642808 -2.9001606 2.0133219
0.78094739 -2.9073851 2.0115068
0.83743298 -2.8901212 2.0116239
-0.89738297 -2.8822174 2.0131285
-0.8337996 -2.8888822 2.0154803
0.90781593 -2.8800666 2.0105975
-0.9533537 -2.8682406 2.0165722
0.96998239 -2.868618 2.0167353
-1.0162885 -2.8488202 2.0156994
1.0961604 -2.8403401 2.013783
-1.0826362 -2.8388572 2.0155945
-1.1396493 -2.8239625 2.0163462
-1.2054424 -2.8102734 2.0148878
-1.2660335 -2.7910457 2.0133917
1.3352829 -2.7702091 2.0108905
-1.3263111 -2.7687478 2.0124924
1.4002728 -2.752789 2.011127
-1.3819849 -2.748286 2.0122313
-1.446403 -2.7339222 2.0135972
1.5180075 -2.7117708 2.0116127
-1.5658888 -2.6931992 2.0105777
1.5802245 -2.6919739 2.0142858
-1.6861984 -2.6393392 2.0115581
1.6879647 -2.6386342 2.0113354
-1.7416544 -2.6231735 2.0125558
1.7518806 -2.6191757 2.0144813
-1.7933288 -2.5983806 2.0116856
-1.8519907 -2.5734301 2.0168521
-1.9051876 -2.5477366 2.0169258
1.9155041 -2.5385845 2.0132368
-1.9635445 -2.5122561 2.0127258
1.9742987 -2.5131373 2.0165756
2.0327282 -2.4928081 2.0114908
-2.0179336 -2.487334 2.0118959
-2.0721231 -2.4570415 2.0138252
2.0868125 -2.4574876 2.0153065
-2.1304836 -2.4322515 2.0119605
-2.183192 -2.3985901 2.0170634
-2.2283895 -2.365005 2.0114582
-2.2776661 -2.3415542 2.0153248
2.2932844 -2.337889 2.0129802
-2.3377841 -2.3052948 2.0120742
2.3411267 -2.307013 2.0119081
-2.4361076 -2.2392342 2.0147102
2.4430215 -2.2380121 2.0170488
-2.4833519 -2.2082269 2.0104544
2.4874382 -2.2083702 2.0148015
-2.5257759 -2.1659365 2.0170863
2.5344346 -2.1643209 2.015008
2.5855746 -2.1296034 2.0119007
-2.6209476 -2.0970335 2.0123074
2.675211 -2.0628884 2.0147052
-2.6655941 -2.0593221 2.017303
-2.7093773 -2.0211606 2.0104585
2.7200305 -2.0235424 2.0117872
-2.7552845 -1.9857935 2.0152192
2.7639749 -1.9796363 2.0163224
-2.7993855 -1.9477242 2.0167572
-2.8406839 -1.9058366 2.01735
2.8491678 -1.9042089 2.0130949
-2.88429 -1.8664494 2.0164032
-2.9252717 -1.8267343 2.0160654
-2.9613037 -1.7793601 2.0120027
-2.9991169 -1.7420422 2.0111382
-3.0344512 -1.6999968 2.0155206
-3.0710032 -1.6554011 2.0165839
3.083962 -1.6598912 2.011539
-3.1133859 -1.6137434 2.0165343
3.1170697 -1.6141064 2.0152905
3.1563091 -1.5676976 2.014698
3.1891243 -1.5252204 2.0168512
-3.2172668 -1.4853431 2.0165725
3.2248635 -1.4783012 2.0150237
3.2505631 -1.4388323 2.0133042
-3.3063476 -1.3486583 2.0139453
3.3155494 -1.3452646 2.011411
-3.3394799 -1.2974753 2.0166302
-3.3594301 -1.2473297 2.0150671
-3.3928781 -1.209007 2.0172119
3.4030948 -1.2014325 2.0114586
-3.4128697 -1.1541255 2.0129507
3.4222002 -1.1525831 2.0148718
3.4458628 -1.1099476 2.0139294
-3.4604671 -1.0633279 2.0106156
-3.4900723 -1.0092834 2.0124977
-3.5066307 -0.96586746 2.0165782
-3.5306661 -0.91452044 2.0144942
3.535965 -0.90997785 2.0150843
-3.5484116 -0.86184299 2.0171902
-3.5663233 -0.8181743 2.013202
3.5777721 -0.80942756 2.0100882
3.5968034 -0.76293123 2.0142252
-3.6023498 -0.71590036 2.0139468
3.6147532 -0.71409094 2.0118492
-3.6144085 -0.66419202 2.0122197
3.6239593 -0.66088557 2.0102739
-3.6255105 -0.60916209 2.0151143
3.6369381 -0.6095776 2.013895
3.655035 -0.56036395 2.0096152
3.6613934 -0.51259488 2.0168951
-3.6545496 -0.50903863 2.0157363
-3.6623142 -0.46235996 2.0117636
3.6718795 -0.45775828 2.0113614
-3.6728213 -0.40599877 2.010469
3.6843302 -0.40534887 2.0112603
3.6896784 -0.3621639 2.0153999
-3.6830568 -0.35718125 2.0167115
-3.6914685 -0.30851614 2.0156767
3.6968246 -0.30428973 2.0137017
-3.6946938 -0.25332677 2.0118866
3.7057366 -0.25495878 2.0101314
-3.6973579 -0.20568295 2.0123172
3.7076585 -0.2038354 2.015172
-3.7050114 -0.14846748 2.0143113
3.7160749 -0.14858332 2.0129714
-3.7106538 -0.096655644 2.0141222
3.7217863 -0.094340861 2.0114279
-3.7064846 -0.049056415 2.0120473
3.7239933 0.0049606068 2.0125575
-3.7102079 0.0531349 2.0147812
3.7153988 0.10715837 2.0142999
3.7069635 0.21602276 2.0121348
-3.6978357 0.26098654 2.0164759
-3.6907477 0.31968468 2.0132768
3.6973729 0.3129046 2.0147555
-3.6805391 0.37283817 2.0143814
-3.6751986 0.4168795 2.0104721
3.6835825 0.41434777 2.0125577
-3.6607552 0.46885878 2.010813
3.6733999 0.47330827 2.0167727
-3.6570113 0.51884037 2.0120313
3.6668923 0.52145159 2.0132637
-3.6413264 0.57363755 2.0169466
3.6404359 0.62630564 2.0124917
-3.6108527 0.67725736 2.0156941
3.6233082 0.67782182 2.0119205
-3.5963998 0.7220459 2.013535
3.6107314 0.72855937 2.0105865
-3.5861709 0.77255946 2.0103309
-3.5635607 0.82268316 2.0183041
3.5740526 0.82875127 2.0104365
-3.5466101 0.86912203 2.0118916
3.5562637 0.87532425 2.0175042
3.5362334 0.91829944 2.0150506
-3.524663 0.9282462 2.0131505
-3.5122795 0.97660547 2.0128417
3.5228717 0.97114658 2.0151203
3.5000272 1.0195246 2.0108352
-3.4854245 1.021767 2.0143518
-3.4615626 1.0718986 2.0120504
3.474546 1.0729697 2.0128479
3.4515657 1.1152554 2.0107105
-3.4143567 1.1645949 2.0145214
3.4241545 1.1682425 2.0136392
-3.3847225 1.2124668 2.0171402
3.4024293 1.2108521 2.0123906
-3.3671579 1.2600783 2.0133121
-3.3369679 1.3075753 2.0112231
3.316715 1.3565028 2.0149314
-3.2787066 1.3950295 2.0127935
3.2855704 1.3960444 2.01525
-3.2461493 1.4493394 2.0155334
-3.2099333 1.4871169 2.0123651
3.2198925 1.4947661 2.0114617
-3.1808751 1.5367366 2.0171206
-3.1412442 1.5784855 2.0128658
3.1563144 1.5807846 2.0140643
3.1195185 1.6190223 2.0111375
-3.1065633 1.6263642 2.0124173
-3.0708766 1.6660736 2.0136163
3.0810935 1.6714365 2.0138648
-3.0344141 1.7070906 2.0167208
3.0495172 1.7050921 2.0142055
-3.0006578 1.7486364 2.0151203
3.0153966 1.7514297 2.0110109
-2.9258106 1.8393098 2.0169716
-2.8802824 1.8738735 2.0145459
-2.8413281 1.9159819 2.0131104
2.8540092 1.9119217 2.0170581
-2.8018062 1.9544423 2.0112476
2.8059621 1.9567963 2.0132334
-2.7554443 1.9894923 2.0116456
-2.5748446 2.1437514 2.0112944
2.590637 2.140151 2.0133274
-2.5282409 2.1766994 2.0141873
2.537215 2.176837 2.0134988
-2.4802663 2.2114828 2.0138023
-2.4298108 2.2448697 2.0122347
2.3440361 2.3171113 2.0154479
-2.2859807 2.3465154 2.0140016
2.289125 2.3434937 2.0172579
2.2390745 2.3758359 2.0123177
2.136075 2.4420309 2.0103571
-2.0750425 2.4714873 2.0117683
2.084374 2.4708943 2.0122132
2.0262315 2.5026262 2.0150433
-1.9680442 2.5224578 2.0172296
1.977644 2.5241978 2.0163865
-1.9041665 2.5505455 2.015507
1.9234085 2.5561039 2.0141015
-1.8556017 2.5840299 2.0143254
-1.7959075 2.6058617 2.0145752
1.8027982 2.6096256 2.0163987
-1.6866856 2.6490972 2.0171337
-1.6253943 2.6725032 2.0140016
1.6330943 2.680212 2.0156288
1.5749823 2.6973701 2.012665
-1.5610739 2.7007432 2.0165431
-1.5045991 2.7195261 2.0107718
-1.3829148 2.7578502 2.0166686
1.3920231 2.7571061 2.0120983
1.3406794 2.7757893 2.0102043
1.2766452 2.79389 2.0142984
-1.2671372 2.8030612 2.0147038
-1.2080226 2.8156536 2.0141413
1.2175376 2.8125875 2.0140474
1.155045 2.8284853 2.0152926
-1.0766301 2.8458242 2.011209
-1.0200974 2.8648853 2.0141375
-0.95896816 2.8770626 2.0116043
0.96874112 2.8808641 2.0112069
-0.8269788 2.8996127 2.0152962
0.90122932 2.891469 2.0110724
0.83995789 2.9060166 2.0134406
-0.7720015 2.9154813 2.017189
0.77804321 2.9173338 2.0144188
-0.70756245 2.9220698 2.0135648
-0.64050311 2.9279816 2.0165231
0.70920134 2.9267597 2.0150661
0.64824891 2.9320068 2.0156453
-0.50784421 2.9513094 2.0153134
-0.44715893 2.9574938 2.011426
-0.38671198 2.9588287 2.0130394
-0.25153321 2.9699712 2.016784
0.26005378 2.9696233 2.0113783
0.33088952 2.9632385 2.0141904
0.39492413 2.9612253 2.0146174
-0.18910523 2.976613 2.0118542
-0.1259222 2.9743927 2.015728
-0.061305579 2.9791684 2.0165012
0.0052888375 2.9796944 2.0140972
0.13026427 2.9746561 2.0107148
0.1990045 2.9768922 2.0110025
0.13593148 -2.9411256 2.0276709
0.19971058 -2.9402757 2.0276799
0.26295209 -2.9413218 2.0272
-0.31516266 -2.9283848 2.0283363
0.44962817 -2.9248323 2.0291324
0.51840359 -2.9191394 2.0292225
0.58653486 -2.9111028 2.0296955
-0.70301223 -2.8928905 2.0291672
-0.63719702 -2.89501 2.0272083
-0.76188093 -2.8751502 2.0282249
-1.0065943 -2.8255057 2.027086
1.2643402 -2.7616944 2.0298572
-1.3185604 -2.7522888 2.0293248
1.3309394 -2.751446 2.0276434
-1.4895163 -2.6920805 2.0279951
-1.6061674 -2.6475334 2.0272419
1.6757104 -2.6190965 2.0295746
-1.8360941 -2.550859 2.0289381
1.9048656 -2.52718 2.0274041
-2.0023437 -2.4686174 2.0286076
2.0622327 -2.4410086 2.0270379
-2.2604134 -2.316081 2.0289037
2.2707443 -2.3192089 2.0289845
2.3761454 -2.2566905 2.0271494
2.4239171 -2.217026 2.0278502
-2.4615059 -2.1900785 2.0288467
2.4727385 -2.1858099 2.0267892
2.5193698 -2.1479883 2.0285354
2.6076338 -2.0793884 2.0284951
-2.7735543 -1.9268601 2.0292621
-2.817872 -1.891538 2.0270214
2.8331637 -1.8927494 2.0268538
-2.8977737 -1.8088672 2.0284543
2.9848192 -1.7330886 2.0298929
-3.0837636 -1.6042483 2.029634
-3.1183982 -1.5606506 2.0269039
-3.1560333 -1.5166627 2.0299964
3.168231 -1.5133431 2.0285046
-3.1906412 -1.4738621 2.0293036
3.2302754 -1.4253601 2.0297389
-3.2466166 -1.3771001 2.02946
-3.4080594 -1.0978484 2.0268362
-3.4612527 -1.002358 2.0287242
3.5519836 -0.81202775 2.0289764
-3.5860817 -0.65685046 2.0283821
3.6111763 -0.60823923 2.0304408
3.6222506 -0.56222266 2.0302176
-3.6360147 -0.4521369 2.0291362
3.6477451 -0.45163369 2.028332
3.6525857 -0.40606916 2.0284433
-3.670825 -0.25540221 2.0296872
-3.6712229 -0.20378028 2.0272558
3.6873724 -0.14676364 2.0313406
-3.6799829 -0.041826241 2.0295022
-3.6801636 0.0063622175 2.0286002
-3.6742098 0.21386418 2.0268106
3.6761141 0.31549379 2.0272291
3.6682169 0.3659887 2.0291398
3.653481 0.41250432 2.0308511
-3.6251357 0.51618642 2.0300984
3.639025 0.51381814 2.0303307
-3.5683372 0.71467996 2.0270729
3.5648582 0.76397896 2.0301139
-3.5166206 0.87138981 2.0268779
3.4422889 1.0573509 2.028348
3.4253755 1.1066886 2.0278904
-3.3597925 1.2071043 2.0312412
-3.2531495 1.394026 2.0278416
-3.2209167 1.4324306 2.0280964
-3.1556406 1.5198281 2.029815
3.0988591 1.6086221 2.0286758
-3.0915394 1.6129342 2.0271933
-2.9416659 1.78298 2.0289984
2.9532495 1.7818226 2.0287225
2.6076894 2.0882084 2.0268624
-2.36748 2.2616835 2.0280523
2.2739851 2.3300261 2.0297627
-2.2088516 2.3631196 2.027148
2.0676627 2.4541962 2.0286174
-2.0037894 2.4827218 2.0282373
1.73307 2.6041207 2.0269792
-1.2529325 2.7785811 2.0289016
1.204022 2.7977965 2.0278087
1.1471201 2.8065448 2.0280206
1.085968 2.8274307 2.0297997
-0.94479662 2.8525536 2.0282083
0.90105921 2.8684771 2.0271497
0.77212226 2.8869581 2.0299911
-0.76199287 2.8942974 2.02965
0.70825285 2.9028099 2.0278814
-0.51170969 2.9286776 2.0271654
-0.44317836 2.9353642 2.0265987
0.39512855 2.9404955 2.028913
0.25792286 2.9506612 2.0297208
-0.11967964 -2.9472227 2.0312703
-0.063907206 -2.9481871 2.0333059
0.0028253389 -2.945699 2.0326018
0.067599006 -2.9466138 2.0313256
-0.2472741 -2.9350226 2.0313907
-0.18724212 -2.9395404 2.0317564
0.32547557 -2.9311566 2.0367024
-0.44065359 -2.9271181 2.0357938
-0.37952036 -2.9234338 2.0351541
0.39108336 -2.926348 2.0336049
-0.50890553 -2.9140635 2.0362709
-0.5680421 -2.9040771 2.0307868
0.64652616 -2.8997822 2.0331059
0.70561844 -2.8871396 2.035152
-0.82063228 -2.873158 2.030056
0.77322024 -2.8795989 2.0313392
0.83693564 -2.8716788 2.0361311
-0.88441741 -2.8584538 2.0325842
0.9004057 -2.8538609 2.0367346
-0.94412452 -2.8454387 2.030519
0.96312428 -2.8467879 2.0334651
1.0250545 -2.8272815 2.030071
-1.0741321 -2.810724 2.0339773
1.0835778 -2.8122916 2.032366
1.1473017 -2.8014565 2.0336356
-1.1315351 -2.7992854 2.0312345
-1.1907423 -2.7848592 2.0322754
1.2007673 -2.7852678 2.0353336
-1.2535578 -2.7632153 2.0324695
-1.3717973 -2.7261975 2.0325906
1.3891824 -2.7258036 2.0327091
-1.4330751 -2.7071974 2.0327086
1.4431936 -2.7084277 2.034554
1.5015563 -2.689316 2.0322011
-1.5541122 -2.6693678 2.0341885
1.5600657 -2.6689539 2.0340343
1.6248312 -2.6478462 2.0316188
-1.6695461 -2.6249328 2.0326178
-1.7287482 -2.5949497 2.0328131
1.7383763 -2.5971842 2.0328877
1.7917831 -2.5720277 2.0360575
-1.7816584 -2.5695431 2.0349641
1.8463433 -2.5531602 2.0356193
-1.8958571 -2.5211456 2.0315092
-1.9527905 -2.4911044 2.0301442
1.9605978 -2.4920471 2.0359669
2.0107985 -2.4715848 2.0322084
-2.0527692 -2.4411161 2.0342095
-2.1140997 -2.4088223 2.0328209
2.1206861 -2.4097235 2.0308847
-2.1664381 -2.3812549 2.030755
2.1703286 -2.3810081 2.0336807
-2.2147396 -2.3454585 2.0325692
2.2268972 -2.3482645 2.0322599
-2.3132565 -2.2858624 2.033139
2.3272133 -2.2825801 2.0363059
-2.3631527 -2.25172 2.0352089
-2.4116352 -2.2243562 2.0310962
-2.5132022 -2.1524441 2.0320611
-2.5539193 -2.1200233 2.0335453
2.5614772 -2.1117268 2.0324495
-2.6043468 -2.0832691 2.0350785
-2.6469452 -2.0404375 2.0367286
2.6568434 -2.039151 2.0333672
-2.6940968 -2.0076222 2.0333531
2.6980424 -2.0034406 2.0303657
-2.7376964 -1.9675745 2.0314014
2.7469983 -1.9643143 2.0350869
2.7918441 -1.9284701 2.0343952
-2.8550322 -1.8536853 2.036329
2.8730607 -1.8463966 2.0333123
2.9064953 -1.8119606 2.0326769
-2.9410698 -1.7663025 2.0310316
2.9447846 -1.7651618 2.0302079
-2.9730268 -1.7249757 2.0308182
3.0278594 -1.69022 2.03584
-3.0158315 -1.6831897 2.0313077
-3.0516322 -1.6457455 2.0342736
3.0660255 -1.6427221 2.0353131
3.098321 -1.5979289 2.0334551
3.1269169 -1.5573688 2.0333629
3.1985099 -1.4697663 2.0314066
-3.2187223 -1.421882 2.0330064
3.2597539 -1.3794402 2.0341351
-3.2845454 -1.3386544 2.0309
3.2940459 -1.3330801 2.0337918
-3.3135669 -1.2835037 2.0312989
3.3161907 -1.2845471 2.0341463
-3.3356714 -1.239116 2.0315859
3.3470116 -1.2399416 2.0354662
-3.3657451 -1.1947055 2.0351937
3.3734004 -1.193517 2.0328252
-3.3838158 -1.1496695 2.033843
3.3981466 -1.150278 2.0320849
3.4179707 -1.1019416 2.0361226
-3.4399905 -1.0561731 2.0307884
3.446965 -1.0556712 2.0316832
3.4691265 -1.0007383 2.0333793
-3.485095 -0.95658928 2.03317
3.4873624 -0.95684916 2.0308945
-3.4998744 -0.90338272 2.0358136
3.5107272 -0.90316737 2.0359504
-3.5232198 -0.86108249 2.0324278
3.5280204 -0.85491955 2.0325005
-3.5411057 -0.80464107 2.0367026
-3.5563993 -0.75629222 2.0288372
3.5666318 -0.75660586 2.0353594
-3.5748775 -0.71068698 2.0301433
3.5815771 -0.71179307 2.0317631
3.592222 -0.65819299 2.0354311
-3.5984604 -0.60670257 2.0349467
-3.6125906 -0.56036174 2.0329943
-3.6276317 -0.50655329 2.035501
3.6384478 -0.5042963 2.0366421
-3.6423936 -0.40146321 2.0300133
-3.656297 -0.35101518 2.0326002
3.6599534 -0.35290283 2.0356982
-3.6624737 -0.30346268 2.0322309
3.6698449 -0.30194056 2.0319529
3.6796563 -0.25494501 2.0298374
3.6862755 -0.19831631 2.0342932
-3.6808274 -0.15264702 2.0328569
-3.6801574 -0.10135877 2.0363789
3.6868329 -0.10128719 2.0335505
3.6887798 -0.046578906 2.032733
3.6902087 0.0048363502 2.0364692
3.6939726 0.0027410518 2.0331931
3.6890426 0.057125624 2.0302441
-3.6841042 0.060677882 2.0320249
-3.6821158 0.1094745 2.0318894
3.6876807 0.10364665 2.0350559
3.6898704 0.15526654 2.0300205
-3.6778352 0.1626246 2.0326881
3.6760204 0.21390259 2.0333261
-3.6626623 0.26662919 2.0355046
3.6749942 0.2624115 2.033294
-3.6640067 0.31220382 2.0300651
-3.6587746 0.36588392 2.0324473
-3.6471751 0.41806763 2.0312896
-3.6367173 0.46121261 2.0329683
3.6460798 0.4687933 2.0330739
-3.6165376 0.56359601 2.0332778
3.6255867 0.56807274 2.0334373
-3.5973737 0.61410582 2.0363173
3.6072783 0.62269682 2.034121
-3.5917695 0.66928297 2.0339563
3.5925224 0.67148352 2.0350432
3.5800638 0.72136164 2.0321882
-3.5555782 0.76493859 2.0303142
-3.5356615 0.81436932 2.0361824
3.5519814 0.81295544 2.0358393
3.5335257 0.87141007 2.0313537
3.5070736 0.9113276 2.0333564
-3.4983449 0.92037475 2.0349615
-3.4790201 0.967336 2.0350609
3.4887316 0.96664584 2.0339618
-3.4618983 1.0130438 2.0338724
3.4720931 1.0115656 2.0300822
-3.4324105 1.0638849 2.0330145
-3.4133723 1.1073234 2.0314038
-3.3886852 1.1591922 2.0350919
3.3981044 1.1548592 2.0359688
3.3707218 1.2059287 2.03424
-3.3411627 1.2505774 2.0306566
3.3505981 1.2556715 2.0343888
-3.3101547 1.3016701 2.0328646
3.3147404 1.3005279 2.0344596
-3.2834663 1.3400315 2.034224
3.2851014 1.3454487 2.0339482
3.261091 1.3924787 2.0341179
3.2275491 1.4396195 2.0301533
-3.1850319 1.4757134 2.0300746
3.2007811 1.4840411 2.0337081
3.1643481 1.5191406 2.0341928
-3.120755 1.5683992 2.0316391
3.1323085 1.5704441 2.0361254
-3.0535254 1.6573581 2.0318489
3.0625465 1.6545831 2.0350938
-3.0148842 1.6976129 2.036176
3.0235739 1.6965991 2.0344179
2.9838305 1.7399404 2.0321412
-2.9749613 1.7414873 2.0346072
2.9112599 1.8188623 2.0366781
-2.8980837 1.825398 2.0351377
-2.8633444 1.8639569 2.0352373
2.8685553 1.8625066 2.036541
-2.8237021 1.8959106 2.032568
2.8310134 1.9004996 2.0360274
-2.7768359 1.9429655 2.0300333
2.7861667 1.9441364 2.0362644
-2.7306442 1.9777851 2.0355022
2.7409563 1.9787612 2.0339189
-2.6875553 2.0166321 2.032124
2.6968446 2.0139048 2.0363407
-2.6496007 2.0542967 2.0342679
2.6544619 2.0576339 2.0318029
-2.5986402 2.0869038 2.0345707
-2.5508957 2.1270208 2.0342093
2.569447 2.1257656 2.03336
-2.505693 2.1607027 2.0317457
2.5181479 2.1603661 2.0303643
-2.464951 2.2015157 2.0323551
2.4726639 2.2014868 2.0335736
-2.4107249 2.2283902 2.0320837
2.4243848 2.2292874 2.0301456
2.375232 2.2597928 2.0349941
-2.3161879 2.2964199 2.0316889
2.3248434 2.2965474 2.0343409
-2.2604647 2.3273082 2.0332112
2.2200902 2.3621521 2.0323799
-2.162699 2.3955765 2.0331044
2.1679411 2.3954654 2.0313902
-2.1084647 2.4161303 2.0309055
2.1205943 2.4163752 2.0342634
-2.0596528 2.447386 2.0349162
2.0106008 2.4766433 2.0321414
-1.9462564 2.5012577 2.0334637
1.9599319 2.510289 2.0320129
-1.8984947 2.5319116 2.0307314
1.9018769 2.5330801 2.0355794
1.8498156 2.5548716 2.0362234
-1.8351901 2.5603669 2.0324492
-1.7860425 2.587827 2.0351243
1.7920415 2.5851421 2.0308826
-1.725132 2.609972 2.0313993
1.678993 2.6294549 2.0338676
-1.6654248 2.6317194 2.0362005
-1.6066699 2.6528409 2.0323379
1.6170232 2.6535583 2.0334535
-1.5500367 2.6787899 2.0349152
1.5635716 2.6818869 2.0340598
1.5025185 2.6994929 2.0333335
-1.4963152 2.7008243 2.0309823
-1.4312668 2.7194431 2.0345581
1.4453632 2.7228677 2.0366457
-1.3747047 2.7370987 2.0335002
1.3812927 2.7390096 2.0359478
-1.3134149 2.7615132 2.0338671
1.3266732 2.761121 2.0311477
1.2652175 2.775769 2.0320158
-1.1977555 2.7921627 2.0336211
-1.1371362 2.8099685 2.0324018
-1.0759506 2.8241098 2.0341332
-1.0098962 2.8422885 2.0355945
1.0213757 2.8430672 2.032716
0.95605963 2.8524597 2.0318022
-0.88991237 2.8679323 2.0315955
-0.8272149 2.8745818 2.0307245
0.83506107 2.8754697 2.0353482
-0.70243853 2.8998914 2.0353427
-0.63653427 2.9095862 2.0365527
0.64936852 2.9065888 2.0323942
-0.56815177 2.9140203 2.0322421
0.58115727 2.9189363 2.0317531
0.45602477 2.929399 2.0307117
0.51856315 2.9245081 2.0335281
-0.38184264 2.94034 2.0324054
-0.3137812 2.9445 2.0336699
-0.25178316 2.9427965 2.0341759
-0.19150548 2.9461422 2.0366342
0.13838306 2.9475327 2.0339606
0.19408314 2.9496078 2.0316668
0.32703185 2.9473813 2.0327518
-0.12398547 2.9516201 2.0343623
-0.054651137 2.9574502 2.0302629
0.0040611718 2.9534199 2.0341277
0.067286722 2.9537368 2.0318446
0.0081257038 -2.9216807 2.049819
-0.25284249 -2.916893 2.0470774
-0.06130638 -2.9153833 2.0482612
0.072182029 -2.9158537 2.0492651
-0.31024361 -2.9083958 2.0480857
0.32235152 -2.9091842 2.0475492
0.38796952 -2.9020493 2.0489445
-0.50654793 -2.8953564 2.0462389
0.45246294 -2.8962715 2.0484054
-0.63084292 -2.8794134 2.0462325
0.829898 -2.8439262 2.0483479
-0.93735254 -2.8212991 2.0497715
1.0113343 -2.8102148 2.04742
-1.0667145 -2.7879894 2.0480199
1.1946546 -2.7599957 2.0481939
-1.2425728 -2.7443666 2.0472286
1.3182507 -2.7305448 2.0487566
-1.3648376 -2.7061338 2.0491128
1.3754417 -2.7093871 2.0491211
-1.4827847 -2.6685185 2.0485523
1.4945896 -2.6660135 2.0481296
1.603341 -2.6276278 2.0461454
-1.6532452 -2.6037209 2.0463617
-1.711346 -2.5808008 2.0462747
1.7172565 -2.5761755 2.0477881
1.9457829 -2.4774899 2.0487919
1.9927354 -2.4451618 2.0491059
-2.039753 -2.4191418 2.0488107
-2.2000434 -2.3362529 2.0473166
-2.2449062 -2.2992332 2.0474858
-2.2992237 -2.2689929 2.0487208
2.4080534 -2.2065971 2.0492826
2.5448961 -2.1032667 2.0465271
-2.5341871 -2.0994873 2.0472968
2.590013 -2.0645936 2.0483067
2.7270563 -1.95087 2.0486004
2.7638571 -1.9106849 2.0476832
-2.7965209 -1.8795826 2.048753
-2.8322592 -1.8316488 2.0485628
-2.8769851 -1.7915081 2.0479271
-2.9530368 -1.7172613 2.0467215
-2.9930062 -1.6749259 2.0478275
2.9959321 -1.6712707 2.0496068
-3.0657587 -1.5881666 2.0477805
-3.095799 -1.5403736 2.0485134
3.106575 -1.5499498 2.0478325
-3.1318519 -1.5050875 2.0467803
3.1425266 -1.5023572 2.0463927
3.2361631 -1.3672245 2.0502145
3.2897773 -1.2803879 2.0482738
-3.307801 -1.2328399 2.0489032
-3.4137261 -1.0438542 2.0504212
3.4160404 -1.0423387 2.0492036
-3.4282062 -1.0002831 2.0494633
-3.4507852 -0.95227462 2.0476408
3.4864554 -0.89495379 2.0511706
-3.5252266 -0.74943376 2.0488694
3.5955417 -0.55427557 2.047461
-3.6011288 -0.49849156 2.0490713
-3.6031711 -0.45465079 2.0505445
3.6187994 -0.44991085 2.047807
-3.6208797 -0.40406919 2.0462022
3.6244664 -0.40223202 2.0477214
-3.6344965 -0.30231076 2.051775
3.6369746 -0.3017092 2.0476525
3.6502156 -0.2491788 2.0476801
-3.6542358 -0.1018166 2.0487449
3.6644983 -0.10002466 2.0481606
-3.654155 -0.046096131 2.0491118
-3.6498144 0.0091335811 2.048105
3.6631553 0.0071902713 2.0477881
-3.6567976 0.053566914 2.0482779
-3.6469283 0.15818842 2.0479312
3.6556213 0.15890186 2.0500033
3.6529186 0.20622367 2.0502949
-3.6274357 0.31569102 2.0461552
-3.6228426 0.36605704 2.0512524
3.6198411 0.45967457 2.0494227
3.6049168 0.51803654 2.0500026
3.5686145 0.65977228 2.0499599
-3.5156116 0.81597668 2.0479224
-3.4947062 0.86031783 2.0454614
3.4805746 0.90590924 2.0493321
-3.4703519 0.91048759 2.0498157
3.4652822 0.96090502 2.0476999
3.4390912 1.002165 2.0517793
-3.390475 1.102029 2.0494893
3.3491528 1.1974269 2.047173
3.3198912 1.2428499 2.0519228
3.2647655 1.3315213 2.0499938
-3.0954957 1.5572319 2.0498698
3.1083279 1.558416 2.0496976
-3.0590439 1.5950483 2.0476341
3.041244 1.638971 2.0495603
-2.954854 1.7287737 2.0483379
2.9265392 1.7606168 2.0477149
2.8472078 1.848501 2.0466673
2.7184274 1.9611547 2.0488441
-2.6212437 2.0385013 2.0471094
2.6310918 2.0382957 2.046515
-2.5763206 2.0742161 2.0465376
-2.5355687 2.1117296 2.0485847
2.5424833 2.1128039 2.0460689
-2.483988 2.1485174 2.0475802
2.4944973 2.1440635 2.0461271
2.4491622 2.1786697 2.0491846
2.4082024 2.2078662 2.0466623
2.3072202 2.2781405 2.0484209
-2.2464192 2.3061509 2.0462372
2.2041547 2.3365467 2.0485773
-2.1997123 2.3430653 2.0473654
