# .PCD v0.7 - Point Cloud Data file format
VERSION 0.7
FIELDS x y z
SIZE 4 4 4
TYPE F F F
COUNT 1 1 1
WIDTH 1358
HEIGHT 1
VIEWPOINT 0 0 0 1 0 0 0
POINTS 1358
DATA ascii
-0.095213294 0.12408438 -0.98769009
-0.088601895 0.12891656 -0.98768646
0.088601895 0.12891656 -0.98768646
0.095213294 0.12408438 -0.98769009
0.11731035 0.12802178 -0.98480546
0.12277535 0.12277535 -0.98480725
0.14506517 0.12389737 -0.9816305
-0.13488223 0.13488223 -0.98163432
-0.11277103 0.13203792 -0.98480576
-0.10689772 0.13682283 -0.98480779
-0.082889155 0.13265036 -0.98768777
-0.074629948 0.13745128 -0.98768961
0.074629948 0.13745129 -0.98768961
0.082889155 0.13265038 -0.98768777
0.10689772 0.13682283 -0.98480779
0.11277103 0.13203792 -0.98480576
0.13488223 0.13488223 -0.98163432
-0.12389737 0.14506519 -0.9816305
-0.10206763 0.14048405 -0.98480511
-0.095824942 0.14477569 -0.98481059
-0.089435242 0.14884526 -0.98480517
-0.064860053 0.14232239 -0.98768985
-0.054774158 0.14650014 -0.98768997
-0.047038864 0.14918822 -0.98768651
0.047038864 0.14918821 -0.98768646
0.054774158 0.14650014 -0.98768997
0.064860053 0.14232241 -0.98768985
0.089435257 0.14884526 -0.98480517
0.095824942 0.14477569 -0.98481059
0.10206765 0.14048405 -0.98480511
0.12389737 0.14506519 -0.9816305
-0.11482015 0.1523715 -0.98162782
-0.10807115 0.15724449 -0.9816258
-0.084177844 0.15186083 -0.98480803
-0.074743502 0.15670305 -0.98481083
-0.067849629 0.15984371 -0.98480529
-0.041803617 0.15073897 -0.98768646
-0.035186503 0.15240951 -0.98768806
-0.025814258 0.15425991 -0.98768991
-0.014990738 0.15568477 -0.98768932
-0.0040941956 0.1563511 -0.98768866
0.0054589235 0.156323 -0.98768663
0.014990742 0.15568478 -0.98768955
0.025814269 0.15425995 -0.98769015
0.035186511 0.15240954 -0.98768812
0.041803621 0.15073897 -0.98768651
0.067849636 0.15984371 -0.98480529
0.074743509 0.15670305 -0.98481083
0.084177844 0.15186083 -0.98480803
0.10807115 0.15724449 -0.9816258
0.11482017 0.15237147 -0.98162782
-0.1025176 0.16092038 -0.98162609
-0.095394947 0.16522889 -0.98162848
-0.089579187 0.16847393 -0.98162478
-0.063639805 0.16155906 -0.98480636
-0.055089101 0.16464397 -0.98481089
-0.044938959 0.16771448 -0.9848085
-0.037582882 0.16952547 -0.98480648
0.037582889 0.1695255 -0.98480666
0.044938955 0.16771446 -0.98480839
0.055089105 0.16464397 -0.98481095
0.063639805 0.16155906 -0.98480636
0.089579195 0.16847393 -0.98162478
0.095394947 0.1652289 -0.98162848
0.1025176 0.16092038 -0.98162609
-0.083636791 0.17148085 -0.9816286
-0.074547559 0.17562307 -0.98162866
-0.066820122 0.17871855 -0.98162639
-0.031643644 0.17073379 -0.98480636
-0.024164708 0.17194088 -0.98480761
-0.015132912 0.17296991 -0.98480755
-0.0045447242 0.17355613 -0.98481005
0.0060596215 0.17352487 -0.98480761
0.015132912 0.17296995 -0.98480773
0.024164723 0.17194094 -0.98480785
0.031643651 0.17073382 -0.98480654
0.066820137 0.17871855 -0.98162639
0.074547559 0.17562304 -0.98162866
0.083636791 0.17148085 -0.9816286
-0.062121186 0.18041307 -0.98162496
-0.055781573 0.18245332 -0.98162866
-0.046156257 0.18512264 -0.9816286
-0.036404423 0.18728453 -0.98162842
-0.0265528 0.18893304 -0.98162794
-0.019944919 0.18976316 -0.98162407
0.019944908 0.1897632 -0.98162436
0.026552817 0.18893309 -0.98162824
0.036404438 0.18728454 -0.98162848
0.046156257 0.18512262 -0.98162848
0.055781584 0.18245332 -0.98162872
0.062121194 0.18041305 -0.98162496
-0.014970105 0.19021323 -0.9816255
-0.0049938643 0.19070803 -0.9816308
0.0066584656 0.19067353 -0.98162776
0.014970116 0.19021328 -0.98162574
-0.025285229 -0.24057277 -0.97029817
-0.014768423 -0.24146113 -0.97029454
-0.0063325465 -0.24182945 -0.97029454
0.0042216778 -0.24186099 -0.97029787
0.014768422 -0.24146102 -0.97029412
0.025285181 -0.24057266 -0.97029769
-0.072744504 -0.23071596 -0.97029489
-0.064648271 -0.23311424 -0.97029501
-0.054415215 -0.23569807 -0.97029823
-0.044084996 -0.2378615 -0.97029442
-0.035756942 -0.2392551 -0.97029442
0.035756938 -0.23925507 -0.9702943
0.044085007 -0.2378615 -0.97029454
0.054415192 -0.23569809 -0.97029829
0.064648278 -0.23311423 -0.97029501
0.072744451 -0.23071599 -0.97029489
-0.094517104 -0.22266829 -0.97029865
-0.084719539 -0.22659278 -0.97029537
-0.078761838 -0.22874098 -0.97029305
-0.044846274 -0.22042646 -0.97436863
-0.035186615 -0.22215942 -0.97437173
-0.025464196 -0.22349627 -0.97436869
-0.015690245 -0.2243807 -0.97437155
-0.005888314 -0.22486508 -0.97436839
0.0039255209 -0.22489423 -0.97437102
0.015690245 -0.22438063 -0.97437119
0.025464136 -0.2234962 -0.97436827
0.035186611 -0.22215939 -0.97437167
0.044846229 -0.22042646 -0.97436869
0.078761846 -0.22874098 -0.97029305
0.084719539 -0.22659276 -0.97029537
0.094517075 -0.22266831 -0.97029865
-0.1154306 -0.21259673 -0.97029454
-0.10604108 -0.21741645 -0.97029841
-0.080615051 -0.21000952 -0.97436792
-0.075087324 -0.21204008 -0.97436959
-0.065762863 -0.21510057 -0.97437274
-0.054415185 -0.21824738 -0.97437197
0.054415196 -0.21824737 -0.97437203
0.065762833 -0.21510059 -0.97437274
0.075087331 -0.21204008 -0.97436959
0.080615059 -0.2100095 -0.97436792
0.10604105 -0.21741647 -0.97029841
0.11543062 -0.21259673 -0.97029454
-0.13352041 -0.20172732 -0.97029471
-0.1245866 -0.20734687 -0.97029775
-0.10212539 -0.20043227 -0.97436702
-0.095059 -0.20385471 -0.97437233
-0.08608178 -0.20781973 -0.97436965
-0.052054875 -0.20128128 -0.97814661
-0.044998571 -0.20297527 -0.97814631
-0.036099844 -0.20473245 -0.97814894
-0.025335528 -0.20634116 -0.97814888
-0.014501738 -0.20738429 -0.97814864
-0.0054422882 -0.20783207 -0.97814584
0.0036281745 -0.20785899 -0.9781484
0.014501737 -0.20738423 -0.97814828
0.025335489 -0.20634109 -0.97814852
0.036099847 -0.20473243 -0.97814888
0.04499853 -0.20297527 -0.97814631
0.052054882 -0.20128129 -0.97814673
0.086081736 -0.20781973 -0.97436965
0.095059 -0.20385471 -0.97437233
0.10212529 -0.20043232 -0.97436702
0.12458657 -0.20734689 -0.97029775
0.13352041 -0.2017273 -0.97029471
-0.14557785 -0.19318831 -0.97029847
-0.13876018 -0.19817013 -0.97029245
-0.11584691 -0.19280159 -0.97437227
-0.1073332 -0.19768314 -0.97436899
-0.081237398 -0.19138326 -0.97814572
-0.074501447 -0.19408293 -0.97814989
-0.064241841 -0.19771598 -0.97814959
-0.057308026 -0.19985695 -0.97814506
0.057308026 -0.19985695 -0.97814506
0.064241819 -0.19771601 -0.97814959
0.074501425 -0.19408293 -0.97814989
0.081237406 -0.19138326 -0.97814572
0.1073332 -0.19768314 -0.97436899
0.11584689 -0.19280159 -0.97437227
0.13876018 -0.19817013 -0.97029245
0.14557782 -0.19318832 -0.97029847
-0.15548904 -0.18530469 -0.97029877
-0.13222264 -0.18198876 -0.9743675
-0.12577857 -0.18647441 -0.97437215
-0.10237657 -0.18094999 -0.97814661
-0.094380498 -0.18523215 -0.97814959
-0.086216211 -0.18918422 -0.97814721
0.086216219 -0.18918422 -0.97814721
0.094380476 -0.18523216 -0.97814959
0.10237657 -0.18094999 -0.97814661
0.12577857 -0.18647438 -0.97437215
0.13222255 -0.18198884 -0.9743675
0.15548904 -0.18530469 -0.97029877
-0.17106415 -0.17106412 -0.97029316
-0.16497412 -0.17691307 -0.97029907
-0.14308091 -0.17357107 -0.97436917
-0.13693626 -0.17845877 -0.97436929
-0.11473289 -0.1733425 -0.97815305
-0.10708217 -0.17821455 -0.97814506
0.10708208 -0.17821459 -0.97814506
0.11473289 -0.1733425 -0.97815305
0.13693626 -0.17845877 -0.97436929
0.14308091 -0.17357105 -0.97436917
0.16497412 -0.17691307 -0.97029907
0.17106411 -0.17106417 -0.97029316
-0.17691307 -0.16497412 -0.97029907
-0.15340114 -0.16450259 -0.97437274
-0.14758085 -0.16977236 -0.97436768
-0.1308426 -0.16157718 -0.97814459
-0.12511182 -0.16602895 -0.978149
0.12511179 -0.16602896 -0.978149
0.13084261 -0.16157718 -0.97814459
0.14758082 -0.16977237 -0.97436768
0.15340114 -0.16450259 -0.97437274
0.17691307 -0.16497412 -0.97029907
-0.18530467 -0.15548907 -0.97029877
-0.16450259 -0.15340114 -0.97437274
-0.15906414 -0.15906411 -0.9743681
-0.14179496 -0.15205649 -0.97814471
-0.1363886 -0.15689714 -0.97814888
0.13638858 -0.15689716 -0.97814888
0.14179496 -0.15205647 -0.97814471
0.1590641 -0.15906416 -0.9743681
0.16450259 -0.15340114 -0.97437274
0.18530463 -0.1554891 -0.97029877
-0.19318834 -0.14557782 -0.97029847
-0.17357104 -0.14308093 -0.97436917
-0.16977234 -0.14758086 -0.97436768
-0.15205649 -0.14179493 -0.97814471
-0.14700098 -0.147001 -0.97814912
0.14700095 -0.14700101 -0.97814912
0.1520565 -0.14179493 -0.97814471
0.16977234 -0.14758086 -0.97436768
0.17357101 -0.14308096 -0.97436917
0.19318832 -0.14557783 -0.97029847
-0.20172732 -0.13352041 -0.97029471
-0.19817011 -0.13876019 -0.97029245
-0.18198882 -0.13222256 -0.9743675
-0.17845879 -0.13693623 -0.97436929
-0.16157717 -0.13084263 -0.97814459
-0.15689716 -0.1363886 -0.97814888
0.15689714 -0.1363886 -0.97814888
0.16157715 -0.13084266 -0.97814459
0.17845879 -0.13693623 -0.97436929
0.18198879 -0.13222261 -0.9743675
0.19817008 -0.13876024 -0.97029245
0.2017273 -0.13352041 -0.97029471
-0.20734687 -0.12458657 -0.97029775
-0.18647441 -0.12577857 -0.97437215
-0.16602896 -0.12511177 -0.978149
0.16602896 -0.12511179 -0.978149
0.18647437 -0.12577859 -0.97437215
0.20734687 -0.1245866 -0.97029775
-0.21259673 -0.1154306 -0.97029454
-0.19280161 -0.11584688 -0.97437227
-0.1733425 -0.11473289 -0.97815305
0.17334248 -0.11473291 -0.97815305
0.19280159 -0.11584691 -0.97437227
0.21259673 -0.11543057 -0.97029454
-0.21741645 -0.1060411 -0.97029841
-0.20043229 -0.10212536 -0.97436702
-0.19768314 -0.1073332 -0.97436899
-0.18094999 -0.10237658 -0.97814661
-0.17821458 -0.10708209 -0.97814506
0.17821456 -0.10708213 -0.97814506
0.18094999 -0.10237657 -0.97814661
0.19768314 -0.10733317 -0.97436899
0.20043229 -0.10212535 -0.97436702
0.21741642 -0.10604111 -0.97029841
-0.22266831 -0.094517075 -0.97029865
-0.20385472 -0.095059 -0.97437233
-0.18523216 -0.094380476 -0.97814959
0.18523215 -0.094380498 -0.97814959
0.20385471 -0.09505903 -0.97437233
0.22266832 -0.094517067 -0.97029865
-0.22659276 -0.084719554 -0.97029537
-0.2100095 -0.080615073 -0.97436792
-0.20781973 -0.086081751 -0.97436965
-0.19138327 -0.081237376 -0.97814572
-0.18918422 -0.086216204 -0.97814721
0.18918422 -0.086216219 -0.97814721
0.19138327 -0.081237368 -0.97814572
0.20781973 -0.086081751 -0.97436965
0.21000949 -0.080615118 -0.97436792
0.22659275 -0.084719606 -0.97029537
-0.23071599 -0.072744481 -0.97029489
-0.22874099 -0.078761809 -0.97029305
-0.21204008 -0.075087316 -0.97436959
-0.19408293 -0.074501447 -0.97814989
0.19408293 -0.074501477 -0.97814989
0.21204008 -0.075087339 -0.97436959
0.22874099 -0.078761801 -0.97029305
0.23071599 -0.072744466 -0.97029489
-0.23311423 -0.0646483 -0.97029501
-0.21510057 -0.065762848 -0.97437274
-0.19771601 -0.064241812 -0.97814959
0.19771601 -0.064241812 -0.97814959
0.21510057 -0.065762863 -0.97437274
0.23311421 -0.064648345 -0.97029501
-0.23569809 -0.054415192 -0.97029829
-0.21824738 -0.054415174 -0.97437203
-0.20128129 -0.052054871 -0.97814673
-0.19985695 -0.057308044 -0.97814506
0.19985694 -0.057308089 -0.97814506
0.20128126 -0.05205489 -0.97814661
0.21824737 -0.054415185 -0.97437197
0.23569809 -0.054415181 -0.97029823
-0.23786148 -0.044085022 -0.97029454
-0.22042646 -0.04484627 -0.97436869
-0.20297527 -0.044998545 -0.97814631
0.20297527 -0.044998541 -0.97814631
0.22042646 -0.044846296 -0.97436869
0.23786147 -0.04408507 -0.97029442
-0.23925509 -0.035756901 -0.9702943
-0.2221594 -0.035186592 -0.97437167
-0.20473243 -0.036099847 -0.97814888
0.20473245 -0.036099873 -0.97814894
0.2221594 -0.035186607 -0.97437173
0.23925512 -0.035756901 -0.97029442
-0.24057265 -0.025285199 -0.97029769
-0.22349618 -0.025464155 -0.97436827
-0.20634109 -0.025335489 -0.97814852
0.20634115 -0.025335526 -0.97814882
0.22349627 -0.025464214 -0.97436869
0.24057275 -0.025285266 -0.97029817
-0.24146102 -0.014768383 -0.97029412
-0.22438064 -0.015690226 -0.97437119
-0.20738423 -0.014501721 -0.97814828
0.20738427 -0.014501736 -0.97814852
0.22438072 -0.015690243 -0.97437149
0.24146111 -0.014768383 -0.97029448
-0.24186099 -0.0042216959 -0.97029787
-0.22489426 -0.0039255382 -0.97437102
-0.20785899 -0.0036281904 -0.9781484
0.20783205 -0.0054423031 -0.97814572
0.22486506 -0.0058883303 -0.97436833
0.24182944 -0.0063325637 -0.97029448
-0.24182945 0.0063325278 -0.97029454
-0.22486508 0.0058882972 -0.97436839
-0.20783208 0.0054422729 -0.97814584
0.2078722 0.0027211539 -0.9781484
0.22490855 0.0029441656 -0.97437114
0.24187636 0.0031662849 -0.97029799
-0.24146113 0.014768405 -0.97029454
-0.22438072 0.015690247 -0.97437155
-0.20738429 0.014501738 -0.97814864
0.20738421 0.014501716 -0.97814822
0.22438063 0.015690222 -0.97437119
0.24146102 0.014768387 -0.97029406
-0.24057277 0.025285229 -0.97029817
-0.22349627 0.025464179 -0.97436869
-0.20634116 0.025335511 -0.97814888
0.20634107 0.025335502 -0.97814852
0.22349618 0.025464173 -0.97436827
0.24057265 0.025285207 -0.97029769
-0.23925512 0.035756927 -0.97029442
-0.22215942 0.035186611 -0.97437173
-0.20473245 0.036099866 -0.97814894
0.20473242 0.036099851 -0.97814882
0.2221594 0.035186596 -0.97437167
0.23925509 0.035756916 -0.9702943
-0.23786147 0.044085033 -0.97029442
-0.22042646 0.044846259 -0.97436863
-0.20297527 0.044998534 -0.97814631
0.20297527 0.044998534 -0.97814637
0.22042646 0.044846267 -0.97436869
0.2378615 0.044085022 -0.97029454
-0.23569807 0.054415181 -0.97029823
-0.21824737 0.054415185 -0.97437197
-0.20128126 0.052054882 -0.97814661
-0.19985695 0.057308059 -0.97814506
0.19985695 0.057308059 -0.97814506
0.20128129 0.052054882 -0.97814673
0.21824738 0.054415185 -0.97437203
0.23569809 0.0544152 -0.97029829
-0.23311423 0.064648315 -0.97029501
-0.21510057 0.065762863 -0.97437274
-0.19771598 0.064241827 -0.97814959
0.19771598 0.064241819 -0.97814959
0.21510059 0.065762848 -0.97437274
0.23311423 0.0646483 -0.97029501
-0.23071598 0.072744489 -0.97029489
-0.22874098 0.078761823 -0.97029305
-0.21204008 0.075087331 -0.97436959
-0.19408293 0.07450147 -0.97814989
0.19408293 0.074501455 -0.97814989
0.21204008 0.075087331 -0.97436959
0.22874098 0.078761838 -0.97029305
0.23071599 0.072744466 -0.97029489
-0.22659276 0.084719568 -0.97029537
-0.2100095 0.080615088 -0.97436792
-0.20781973 0.086081766 -0.97436965
-0.19138327 0.081237391 -0.97814572
-0.18918422 0.086216219 -0.97814721
0.18918422 0.086216219 -0.97814721
0.19138327 0.081237383 -0.97814572
0.20781973 0.086081751 -0.97436965
0.21000949 0.080615096 -0.97436792
0.22659275 0.084719568 -0.97029537
-0.22266831 0.094517097 -0.97029865
-0.20385471 0.095059022 -0.97437233
-0.18523215 0.094380498 -0.97814959
0.18523215 0.09438049 -0.97814959
0.20385471 0.095059022 -0.97437233
0.22266831 0.094517089 -0.97029865
-0.21741645 0.1060411 -0.97029841
-0.20043227 0.10212537 -0.97436702
-0.19768314 0.10733318 -0.97436899
-0.18094999 0.10237657 -0.97814661
-0.17821458 0.10708211 -0.97814506
0.17821458 0.10708212 -0.97814506
0.18094999 0.10237657 -0.97814661
0.19768314 0.10733319 -0.97436899
0.20043229 0.10212535 -0.97436702
0.21741645 0.1060411 -0.97029841
-0.21259673 0.11543059 -0.97029454
-0.19280159 0.1158469 -0.97437227
-0.1733425 0.1147329 -0.97815305
0.1733425 0.11473289 -0.97815305
0.19280159 0.1158469 -0.97437227
0.21259673 0.1154306 -0.97029454
-0.20734687 0.12458658 -0.97029775
-0.18647438 0.12577857 -0.97437215
-0.16602896 0.12511179 -0.978149
0.16602896 0.12511179 -0.978149
0.18647441 0.12577857 -0.97437215
0.20734687 0.12458657 -0.97029775
-0.2017273 0.13352041 -0.97029471
-0.19817011 0.13876021 -0.97029245
-0.18198882 0.13222258 -0.9743675
-0.17845879 0.13693626 -0.97436929
-0.16157715 0.13084264 -0.97814459
-0.15689714 0.1363886 -0.97814888
0.15689716 0.1363886 -0.97814888
0.16157717 0.13084261 -0.97814459
0.17845879 0.13693625 -0.97436929
0.18198881 0.13222259 -0.9743675
0.19817011 0.13876021 -0.97029245
0.20172732 0.13352041 -0.97029471
-0.19318834 0.14557783 -0.97029847
-0.17357104 0.14308093 -0.97436917
-0.16977237 0.14758085 -0.97436768
-0.15205649 0.14179495 -0.97814471
-0.14700098 0.147001 -0.97814912
0.147001 0.147001 -0.97814912
0.15205649 0.14179496 -0.97814471
0.16977236 0.14758085 -0.97436768
0.17357104 0.14308092 -0.97436917
0.19318832 0.14557783 -0.97029847
-0.18530467 0.15548907 -0.97029877
-0.16450259 0.15340114 -0.97437274
-0.15906413 0.15906413 -0.9743681
-0.14179495 0.15205649 -0.97814471
-0.1363886 0.15689714 -0.97814888
0.1363886 0.15689714 -0.97814888
0.14179496 0.15205649 -0.97814471
0.15906413 0.15906413 -0.9743681
0.16450259 0.15340114 -0.97437274
0.18530467 0.15548904 -0.97029877
-0.17691308 0.16497412 -0.97029907
-0.15340112 0.16450259 -0.97437274
-0.14758085 0.16977236 -0.97436768
-0.1308426 0.16157719 -0.97814459
-0.12511179 0.16602896 -0.978149
0.1251118 0.16602896 -0.978149
0.13084263 0.16157717 -0.97814459
0.14758085 0.16977234 -0.97436768
0.15340114 0.16450259 -0.97437274
0.17691307 0.16497412 -0.97029907
-0.17106414 0.17106414 -0.97029316
-0.16497412 0.17691308 -0.97029907
-0.14308092 0.17357105 -0.97436917
-0.13693626 0.17845879 -0.97436929
-0.11473289 0.1733425 -0.97815305
-0.10708211 0.17821458 -0.97814506
0.10708212 0.17821458 -0.97814506
0.11473289 0.1733425 -0.97815305
0.13693626 0.17845879 -0.97436929
0.14308093 0.17357104 -0.97436917
0.16497411 0.17691308 -0.97029907
0.17106414 0.17106414 -0.97029316
-0.15548904 0.18530467 -0.97029877
-0.13222258 0.18198881 -0.9743675
-0.12577857 0.18647441 -0.97437215
-0.10237657 0.18094999 -0.97814661
-0.094380476 0.18523216 -0.97814959
-0.086216219 0.18918422 -0.97814721
0.086216219 0.18918422 -0.97814721
0.094380498 0.18523215 -0.97814959
0.10237657 0.18094999 -0.97814661
0.12577857 0.18647438 -0.97437215
0.13222261 0.18198881 -0.9743675
0.15548907 0.18530467 -0.97029877
-0.14557783 0.19318832 -0.97029847
-0.13876021 0.1981701 -0.97029245
-0.1158469 0.19280159 -0.97437227
-0.10733318 0.19768314 -0.97436899
-0.081237391 0.19138327 -0.97814572
-0.074501462 0.19408293 -0.97814989
-0.064241812 0.19771601 -0.97814959
-0.057308059 0.19985695 -0.97814506
0.057308063 0.19985695 -0.97814506
0.064241819 0.19771598 -0.97814959
0.074501462 0.19408293 -0.97814989
0.081237391 0.19138326 -0.97814572
0.10733319 0.19768314 -0.97436899
0.11584689 0.19280159 -0.97437227
0.13876021 0.19817011 -0.97029245
0.14557785 0.19318832 -0.97029847
-0.13352039 0.20172732 -0.97029471
-0.12458658 0.20734687 -0.97029775
-0.10212532 0.2004323 -0.97436702
-0.095059022 0.20385471 -0.97437233
-0.086081751 0.20781973 -0.97436965
-0.052054878 0.20128129 -0.97814673
-0.044998527 0.20297527 -0.97814631
-0.036099855 0.20473243 -0.97814888
-0.025335496 0.20634109 -0.97814852
-0.01450172 0.20738423 -0.97814828
-0.0036281894 0.20785899 -0.9781484
0.0054422696 0.20783208 -0.97814584
0.014501731 0.20738429 -0.97814864
0.025335504 0.20634116 -0.97814888
0.036099866 0.20473245 -0.97814894
0.044998534 0.20297527 -0.97814631
0.052054878 0.20128126 -0.97814661
0.086081766 0.20781973 -0.97436965
0.095059022 0.20385471 -0.97437233
0.10212535 0.20043229 -0.97436702
0.12458657 0.20734687 -0.97029775
0.13352041 0.2017273 -0.97029471
-0.11543059 0.21259673 -0.97029454
-0.1060411 0.21741645 -0.97029841
-0.080615096 0.2100095 -0.97436792
-0.075087324 0.21204008 -0.97436959
-0.065762848 0.21510057 -0.97437274
-0.054415181 0.21824738 -0.97437203
0.054415181 0.21824738 -0.97437197
0.065762863 0.21510057 -0.97437274
0.075087331 0.21204008 -0.97436959
0.080615096 0.21000949 -0.97436792
0.1060411 0.21741645 -0.97029841
0.1154306 0.21259673 -0.97029454
-0.094517089 0.22266831 -0.97029865
-0.084719568 0.22659276 -0.97029537
-0.078761823 0.22874099 -0.97029305
-0.044846263 0.22042646 -0.97436869
-0.035186592 0.2221594 -0.97437167
-0.02546417 0.22349618 -0.97436827
-0.015690226 0.22438064 -0.97437119
-0.0039255372 0.22489423 -0.97437108
0.0058882935 0.22486508 -0.97436839
0.015690239 0.22438072 -0.97437155
0.025464175 0.22349627 -0.97436869
0.035186607 0.22215942 -0.97437173
0.044846267 0.22042646 -0.97436863
0.078761831 0.22874098 -0.97029305
0.084719568 0.22659275 -0.97029537
0.094517089 0.22266831 -0.97029865
-0.072744466 0.23071599 -0.97029489
-0.0646483 0.23311423 -0.97029501
-0.054415185 0.23569809 -0.97029829
-0.04408503 0.23786148 -0.97029454
-0.035756905 0.23925509 -0.9702943
0.03575692 0.23925512 -0.97029442
0.044085033 0.23786147 -0.97029442
0.054415181 0.23569807 -0.97029823
0.064648308 0.23311423 -0.97029501
0.072744481 0.23071599 -0.97029489
-0.025285207 0.24057266 -0.97029769
-0.014768386 0.24146102 -0.97029412
-0.0042216955 0.24186099 -0.97029787
0.0063325241 0.24182945 -0.97029454
0.0147684 0.24146113 -0.97029454
0.025285222 0.24057278 -0.97029817
-0.052593913 -0.27057245 -0.96125919
-0.045491565 -0.27184686 -0.96126193
-0.035976596 -0.27326894 -0.96126211
-0.026417648 -0.274358 -0.96126187
-0.016826646 -0.27511269 -0.96126151
-0.0072150896 -0.27553236 -0.96126145
0.0048100497 -0.27556857 -0.9612658
0.016826645 -0.27511257 -0.96126109
0.026417641 -0.27435786 -0.96126139
0.035976529 -0.27326891 -0.96126187
0.04549158 -0.27184692 -0.96126211
0.052593928 -0.27057248 -0.96125937
-0.085168406 -0.26212129 -0.96126616
-0.073658049 -0.26560247 -0.96126175
-0.06434384 -0.2680113 -0.96126181
-0.057308134 -0.2696133 -0.96125907
0.057308011 -0.26961333 -0.96125907
0.064343847 -0.2680113 -0.96126181
0.073658049 -0.26560247 -0.96126175
0.085168377 -0.26212132 -0.96126616
-0.11211155 -0.25180665 -0.96125937
-0.10547786 -0.25464597 -0.96126163
-0.096526504 -0.25817198 -0.96126145
-0.064800628 -0.25056544 -0.96592528
-0.056016594 -0.25267434 -0.96592534
-0.044939063 -0.25486213 -0.96592939
-0.033781428 -0.25659505 -0.96592551
-0.024805736 -0.25761762 -0.96592522
-0.015799945 -0.25832632 -0.96592504
-0.0067748488 -0.25872031 -0.9659248
0.0045165499 -0.25875419 -0.96592879
0.015799945 -0.25832623 -0.96592468
0.024805726 -0.2576175 -0.96592474
0.033781368 -0.25659499 -0.96592522
0.044939086 -0.25486216 -0.96592951
0.056016542 -0.25267434 -0.96592534
0.064800635 -0.25056544 -0.96592528
0.096526511 -0.25817198 -0.96126145
0.10547782 -0.25464597 -0.96126163
0.11211155 -0.25180665 -0.96125937
-0.13363138 -0.24107739 -0.96125978
-0.12512478 -0.24557121 -0.96126747
-0.11648909 -0.24981171 -0.96125948
-0.092752144 -0.24162774 -0.96592277
-0.086392276 -0.24396428 -0.96592546
-0.075664029 -0.2474858 -0.96592969
0.075663991 -0.24748583 -0.96592969
0.086392283 -0.24396428 -0.96592546
0.092752151 -0.24162772 -0.96592277
0.11648909 -0.24981171 -0.96125948
0.12512475 -0.24557123 -0.96126747
0.13363138 -0.24107738 -0.96125972
-0.15012264 -0.23116858 -0.9612602
-0.14401487 -0.23501079 -0.96126288
-0.1378184 -0.23870854 -0.96125996
-0.11548011 -0.23161727 -0.96592563
-0.10526095 -0.23641992 -0.96592951
-0.096955098 -0.23997214 -0.96592277
0.096954994 -0.23997217 -0.96592277
0.10526095 -0.23641992 -0.96592951
0.11548006 -0.23161729 -0.96592563
0.13781838 -0.23870851 -0.96125984
0.14401481 -0.2350108 -0.96126276
0.15012264 -0.23116855 -0.96126014
-0.16394934 -0.22156471 -0.96126258
-0.15611695 -0.22715162 -0.96126288
-0.13330133 -0.22185056 -0.96592271
-0.12546568 -0.22634611 -0.96592915
0.12546568 -0.22634611 -0.96592915
0.13330123 -0.22185062 -0.96592271
0.15611695 -0.22715162 -0.96126288
0.1639493 -0.22156475 -0.96126258
-0.17532028 -0.21268056 -0.96126205
-0.16969891 -0.21720469 -0.96125942
-0.14471567 -0.21454979 -0.96592945
-0.13715287 -0.21949039 -0.96592289
0.13715288 -0.21949038 -0.96592289
0.14471565 -0.21454978 -0.96592945
0.16969891 -0.21720469 -0.96125942
0.1753203 -0.21268055 -0.96126205
-0.18441959 -0.20481868 -0.96126646
-0.16287965 -0.20113964 -0.96592283
-0.15574603 -0.20668191 -0.96592951
0.155746 -0.20668192 -0.96592951
0.16287966 -0.20113963 -0.96592283
0.18441956 -0.20481868 -0.96126634
-0.1948863 -0.1948863 -0.96126676
-0.17318325 -0.19233944 -0.96592259
-0.16808304 -0.19680001 -0.96592516
0.16808303 -0.19680001 -0.96592516
0.17318326 -0.19233944 -0.96592259
0.19488628 -0.19488634 -0.96126676
-0.20481868 -0.18441957 -0.96126634
-0.18301222 -0.18301217 -0.96592277
-0.17815244 -0.18773352 -0.96592528
0.17815244 -0.18773352 -0.96592528
0.18301216 -0.18301223 -0.96592277
0.20481868 -0.18441956 -0.96126634
-0.21268053 -0.1753203 -0.96126205
-0.19233945 -0.17318323 -0.96592259
-0.18773352 -0.17815243 -0.96592528
0.1877335 -0.17815246 -0.96592528
0.19233947 -0.17318322 -0.96592259
0.2126805 -0.17532036 -0.96126205
-0.22156477 -0.1639493 -0.96126258
-0.21720472 -0.16969888 -0.96125942
-0.20113963 -0.16287968 -0.96592283
-0.19679998 -0.16808307 -0.96592516
0.19679996 -0.16808309 -0.96592516
0.20113958 -0.16287972 -0.96592283
0.21720472 -0.16969888 -0.96125942
0.22156475 -0.1639493 -0.96126264
-0.23116858 -0.15012261 -0.96126014
-0.22715159 -0.15611698 -0.96126288
-0.20668195 -0.15574598 -0.96592951
0.20668195 -0.155746 -0.96592951
0.22715156 -0.15611701 -0.96126288
0.23116858 -0.1501226 -0.96126014
-0.2350108 -0.14401479 -0.96126276
-0.21454979 -0.14471567 -0.96592939
0.21454978 -0.14471568 -0.96592945
0.2350108 -0.14401482 -0.96126276
-0.24107736 -0.13363139 -0.96125972
-0.23870848 -0.1378184 -0.96125984
-0.2218506 -0.13330124 -0.96592271
-0.21949041 -0.13715282 -0.96592289
0.21949041 -0.13715282 -0.96592289
0.22185057 -0.13330129 -0.96592271
0.23870847 -0.13781846 -0.96125984
0.24107739 -0.13363133 -0.96125972
-0.24557121 -0.12512478 -0.96126747
-0.22634608 -0.12546568 -0.96592915
0.22634611 -0.12546568 -0.96592915
0.24557121 -0.12512478 -0.96126747
-0.25180668 -0.11211151 -0.96125937
-0.24981171 -0.11648911 -0.96125948
-0.23161729 -0.1154801 -0.96592563
0.23161726 -0.11548012 -0.96592563
0.24981168 -0.11648916 -0.96125948
0.25180668 -0.1121115 -0.96125937
-0.25464597 -0.10547783 -0.96126163
-0.23641993 -0.10526093 -0.96592951
0.23641993 -0.10526093 -0.96592951
0.25464597 -0.10547782 -0.96126163
-0.25817198 -0.096526526 -0.96126145
-0.24162772 -0.092752166 -0.96592277
-0.23997214 -0.096955061 -0.96592277
0.23997216 -0.096955061 -0.96592277
0.24162771 -0.092752226 -0.96592277
0.25817195 -0.096526586 -0.96126145
-0.26212132 -0.085168377 -0.96126616
-0.24396428 -0.086392269 -0.96592546
0.24396428 -0.086392298 -0.96592546
0.26212132 -0.085168369 -0.96126616
-0.26560247 -0.073658079 -0.96126175
-0.24748583 -0.075664014 -0.96592969
0.2474858 -0.075664029 -0.96592969
0.26560244 -0.073658131 -0.96126175
-0.2680113 -0.06434381 -0.96126181
-0.25056544 -0.06480062 -0.96592528
0.25056544 -0.064800642 -0.96592528
0.2680113 -0.064343803 -0.96126181
-0.27057245 -0.05259395 -0.96125937
-0.2696133 -0.057308096 -0.96125907
-0.25267434 -0.056016564 -0.96592534
0.25267434 -0.056016557 -0.96592534
0.2696133 -0.057308089 -0.96125907
0.27057242 -0.052593999 -0.96125919
-0.27184692 -0.045491565 -0.96126211
-0.25486216 -0.044939086 -0.96592951
0.25486213 -0.044939104 -0.96592939
0.27184692 -0.045491595 -0.96126205
-0.27326888 -0.035976518 -0.96126193
-0.25659499 -0.033781357 -0.96592522
0.25659505 -0.033781391 -0.96592551
0.27326894 -0.035976551 -0.96126205
-0.27435786 -0.026417661 -0.96126139
-0.2576175 -0.024805749 -0.96592474
0.25761759 -0.024805816 -0.96592516
0.27435797 -0.026417734 -0.96126187
-0.2751126 -0.0168266 -0.96126109
-0.25832623 -0.015799902 -0.96592468
0.25832629 -0.015799902 -0.96592498
0.27511272 -0.016826602 -0.96126145
-0.27556857 -0.0048100711 -0.9612658
-0.25875419 -0.0045165694 -0.96592879
0.25872028 -0.0067748679 -0.96592468
0.27553234 -0.0072151101 -0.96126139
-0.27553236 0.0072150691 -0.96126145
-0.25872031 0.0067748292 -0.9659248
0.25877073 0.0033874393 -0.96592903
0.27558613 0.0036075646 -0.9612661
-0.27511272 0.016826626 -0.96126151
-0.25832632 0.015799927 -0.96592504
0.2583262 0.015799908 -0.96592462
0.2751126 0.016826607 -0.96126109
-0.27435797 0.026417693 -0.96126193
-0.25761762 0.024805777 -0.96592522
0.2576175 0.024805741 -0.96592474
0.27435786 0.026417656 -0.96126145
-0.27326894 0.03597654 -0.96126211
-0.25659505 0.033781379 -0.96592551
0.25659499 0.033781372 -0.96592528
0.27326888 0.035976533 -0.96126193
-0.27184686 0.04549158 -0.96126193
-0.25486213 0.044939086 -0.96592939
0.25486216 0.044939093 -0.96592957
0.27184692 0.045491572 -0.96126211
-0.27057242 0.052593958 -0.96125919
-0.26961333 0.057308048 -0.96125907
-0.25267434 0.056016549 -0.96592534
0.25267434 0.056016553 -0.96592534
0.26961333 0.05730807 -0.96125907
0.27057245 0.052593958 -0.96125931
-0.2680113 0.064343825 -0.96126181
-0.25056544 0.064800642 -0.96592528
0.25056544 0.064800628 -0.96592528
0.2680113 0.064343818 -0.96126181
-0.26560244 0.073658101 -0.96126175
-0.2474858 0.075664029 -0.96592969
0.24748583 0.075664014 -0.96592969
0.26560247 0.073658086 -0.96126175
-0.26212132 0.085168399 -0.96126616
-0.24396428 0.086392283 -0.96592546
0.24396428 0.086392283 -0.96592546
0.26212132 0.085168384 -0.96126616
-0.25817198 0.096526541 -0.96126145
-0.24162772 0.092752181 -0.96592277
-0.23997214 0.096955076 -0.96592277
0.23997216 0.096955054 -0.96592277
0.24162771 0.092752188 -0.96592277
0.25817198 0.096526541 -0.96126145
-0.25464597 0.10547785 -0.96126163
-0.23641993 0.10526095 -0.96592951
0.23641993 0.10526095 -0.96592951
0.25464597 0.10547783 -0.96126163
-0.25180668 0.11211153 -0.96125937
-0.24981169 0.11648913 -0.96125948
-0.23161726 0.11548012 -0.96592563
0.23161727 0.11548011 -0.96592563
0.24981169 0.11648911 -0.96125948
0.25180665 0.11211155 -0.96125937
-0.24557121 0.1251248 -0.96126747
-0.22634611 0.12546569 -0.96592915
0.22634608 0.12546568 -0.96592915
0.24557121 0.12512478 -0.96126747
-0.24107739 0.13363135 -0.96125972
-0.23870848 0.13781843 -0.96125984
-0.22185059 0.13330126 -0.96592271
-0.21949039 0.13715285 -0.96592289
0.21949041 0.13715282 -0.96592289
0.22185059 0.13330127 -0.96592271
0.23870848 0.13781841 -0.96125984
0.24107738 0.13363138 -0.96125972
-0.2350108 0.14401481 -0.96126276
-0.21454978 0.14471568 -0.96592945
0.21454979 0.14471567 -0.96592945
0.2350108 0.14401481 -0.96126276
-0.23116857 0.15012263 -0.96126014
-0.22715159 0.15611698 -0.96126288
-0.20668195 0.15574601 -0.96592951
0.20668195 0.15574601 -0.96592951
0.2271516 0.15611698 -0.96126288
0.23116857 0.15012263 -0.96126014
-0.22156477 0.1639493 -0.96126258
-0.2172047 0.16969889 -0.96125942
-0.20113961 0.16287969 -0.96592283
-0.19679999 0.16808306 -0.96592516
0.19679998 0.16808306 -0.96592516
0.20113963 0.16287966 -0.96592283
0.2172047 0.16969891 -0.96125942
0.22156477 0.1639493 -0.96126258
-0.21268053 0.17532033 -0.96126205
-0.19233945 0.17318323 -0.96592259
-0.18773352 0.17815246 -0.96592528
0.18773352 0.17815246 -0.96592528
0.19233945 0.17318323 -0.96592259
0.21268053 0.1753203 -0.96126205
-0.20481868 0.18441956 -0.96126634
-0.18301219 0.18301219 -0.96592277
-0.17815243 0.18773353 -0.96592528
0.17815246 0.18773352 -0.96592528
0.18301219 0.18301219 -0.96592277
0.20481865 0.18441957 -0.96126634
-0.19488628 0.19488631 -0.96126676
-0.17318325 0.19233945 -0.96592259
-0.16808306 0.19679998 -0.96592516
0.16808307 0.19679998 -0.96592516
0.17318322 0.19233947 -0.96592259
0.1948863 0.1948863 -0.96126676
-0.18441956 0.20481867 -0.96126634
-0.16287965 0.20113964 -0.96592283
-0.15574601 0.20668195 -0.96592951
0.15574601 0.20668195 -0.96592951
0.16287968 0.20113963 -0.96592283
0.18441956 0.20481867 -0.96126634
-0.1753203 0.21268055 -0.96126205
-0.16969889 0.2172047 -0.96125942
-0.14471567 0.21454978 -0.96592945
-0.13715285 0.21949039 -0.96592289
0.13715282 0.21949041 -0.96592289
0.14471567 0.21454978 -0.96592945
0.16969891 0.21720469 -0.96125942
0.17532031 0.21268053 -0.96126205
-0.1639493 0.22156475 -0.96126258
-0.15611696 0.22715159 -0.96126288
-0.13330126 0.22185059 -0.96592271
-0.12546569 0.22634608 -0.96592915
0.12546568 0.22634608 -0.96592915
0.13330127 0.22185059 -0.96592271
0.15611698 0.22715159 -0.96126288
0.16394931 0.22156477 -0.96126258
-0.15012263 0.23116857 -0.96126014
-0.14401481 0.2350108 -0.96126276
-0.13781843 0.23870848 -0.96125984
-0.1154801 0.23161729 -0.96592563
-0.10526095 0.23641993 -0.96592951
-0.096955054 0.23997216 -0.96592277
0.096955061 0.23997216 -0.96592277
0.10526093 0.23641993 -0.96592951
0.11548012 0.23161727 -0.96592563
0.1378184 0.23870851 -0.96125984
0.14401481 0.2350108 -0.96126276
0.15012263 0.23116857 -0.96126014
-0.13363135 0.24107738 -0.96125972
-0.12512477 0.24557121 -0.96126747
-0.11648913 0.24981169 -0.96125948
-0.092752188 0.24162772 -0.96592277
-0.086392276 0.24396428 -0.96592546
-0.075664014 0.24748583 -0.96592969
0.075664021 0.24748583 -0.96592969
0.086392283 0.24396428 -0.96592546
0.092752196 0.24162771 -0.96592277
0.1164891 0.24981171 -0.96125948
0.12512478 0.24557121 -0.96126747
0.13363136 0.24107738 -0.96125972
-0.11211153 0.25180668 -0.96125937
-0.10547783 0.25464597 -0.96126163
-0.096526541 0.25817198 -0.96126145
-0.064800628 0.25056544 -0.96592528
-0.056016535 0.25267434 -0.96592534
-0.044939093 0.25486216 -0.96592951
-0.033781361 0.25659499 -0.96592522
-0.024805753 0.2576175 -0.96592474
-0.015799908 0.25832623 -0.96592468
-0.004516568 0.25875422 -0.96592873
0.006774826 0.25872031 -0.9659248
0.015799923 0.25832632 -0.96592504
0.024805758 0.25761762 -0.96592522
0.033781376 0.25659505 -0.96592551
0.04493909 0.25486213 -0.96592939
0.056016542 0.25267434 -0.96592534
0.064800635 0.25056544 -0.96592528
0.096526541 0.25817198 -0.96126145
0.10547784 0.25464597 -0.96126163
0.11211154 0.25180668 -0.96125937
-0.085168377 0.26212132 -0.96126616
-0.073658086 0.26560247 -0.96126175
-0.06434381 0.2680113 -0.96126181
-0.057308052 0.26961333 -0.96125907
0.057308059 0.26961333 -0.96125907
0.064343818 0.2680113 -0.96126181
0.073658086 0.26560247 -0.96126175
0.085168384 0.26212132 -0.96126616
-0.052593969 0.27057245 -0.96125937
-0.045491572 0.27184692 -0.96126211
-0.035976522 0.27326888 -0.96126193
-0.026417665 0.27435786 -0.96126139
-0.016826605 0.2751126 -0.96126109
-0.0048100697 0.27556857 -0.9612658
0.007215065 0.27553236 -0.96126145
0.01682662 0.27511272 -0.96126151
0.026417671 0.274358 -0.96126187
0.035976537 0.27326894 -0.96126211
0.045491572 0.27184686 -0.96126193
0.052593969 0.27057242 -0.96125919
-0.066881098 -0.30168089 -0.95105743
-0.056311745 -0.30383119 -0.95105714
-0.045673933 -0.30561116 -0.95105678
-0.034980424 -0.30701905 -0.95105684
-0.024244303 -0.30805302 -0.95105737
-0.013478702 -0.3087115 -0.95105749
-0.0053930432 -0.30896914 -0.95105392
0.0026965369 -0.30899376 -0.95105726
0.01347863 -0.30871138 -0.95105714
0.024244295 -0.30805284 -0.95105684
0.034980353 -0.30701903 -0.95105678
0.04567394 -0.30561119 -0.95105684
0.056311753 -0.30383116 -0.95105714
0.066881038 -0.30168089 -0.95105743
-0.10314818 -0.29128149 -0.95105749
-0.092919797 -0.29470378 -0.9510572
-0.085176341 -0.29704535 -0.95105362
-0.077368803 -0.29916301 -0.95105731
-0.033096198 -0.29048151 -0.95630509
-0.022938376 -0.29145959 -0.95630521
-0.012752661 -0.29208252 -0.95630497
-0.0051025455 -0.29232648 -0.95630199
0.002551286 -0.29234964 -0.95630497
0.012752593 -0.2920824 -0.95630461
0.022938371 -0.29145944 -0.95630467
0.033096135 -0.29048145 -0.95630497
0.077368811 -0.29916298 -0.95105731
0.085176341 -0.29704535 -0.95105362
0.092919737 -0.29470381 -0.9510572
0.10314818 -0.29128146 -0.95105749
-0.13059589 -0.28006384 -0.95105404
-0.12321566 -0.28337657 -0.95105708
-0.11325093 -0.28750429 -0.95105755
-0.080588318 -0.28104502 -0.95630193
-0.073201314 -0.28304851 -0.95630527
-0.063278541 -0.28543085 -0.9563055
-0.053278524 -0.28746533 -0.9563055
-0.043213706 -0.28914943 -0.95630497
0.04321371 -0.28914946 -0.95630497
0.053278532 -0.28746536 -0.95630562
0.063278481 -0.28543082 -0.9563055
0.073201321 -0.28304848 -0.95630527
0.080588318 -0.28104502 -0.95630193
0.11325088 -0.28750429 -0.95105755
0.12321567 -0.28337657 -0.95105708
0.13059589 -0.28006384 -0.95105404
-0.14506108 -0.27282012 -0.95106351
-0.13546377 -0.277742 -0.95105416
-0.10715058 -0.2720176 -0.95630497
-0.095177807 -0.27641642 -0.95630985
-0.08548104 -0.2795957 -0.95630181
0.085480921 -0.27959573 -0.95630181
0.095177807 -0.27641639 -0.95630985
0.10715052 -0.2720176 -0.95630497
0.13546377 -0.277742 -0.95105416
0.14506103 -0.27282014 -0.95106345
-0.16375376 -0.26206073 -0.95105439
-0.15683229 -0.26624835 -0.95105797
-0.13273384 -0.26050469 -0.95630288
-0.12586457 -0.26388064 -0.95630533
-0.11657864 -0.26811248 -0.95630527
0.11657865 -0.26811248 -0.95630527
0.12586457 -0.26388064 -0.95630533
0.13273372 -0.26050475 -0.95630288
0.15683225 -0.26624843 -0.95105809
0.16375382 -0.26206076 -0.95105463
-0.17502277 -0.25465977 -0.95105803
-0.16830242 -0.25916299 -0.95105457
-0.15058252 -0.25061125 -0.9563036
-0.14396551 -0.25445825 -0.95630634
-0.13726003 -0.25814852 -0.956303
0.13726003 -0.25814852 -0.95630294
0.14396553 -0.25445825 -0.95630628
0.15058242 -0.25061134 -0.95630366
0.16830249 -0.25916305 -0.95105493
0.17502286 -0.25465989 -0.95105851
0.18163536 -0.24999973 -0.95105523
-0.19236064 -0.24183047 -0.95105815
-0.18380375 -0.24839643 -0.95105821
-0.16349202 -0.24238691 -0.95630336
-0.1570856 -0.24657495 -0.9563064
0.15708563 -0.24657497 -0.95630658
0.16349207 -0.24238697 -0.9563036
0.18597086 -0.24679157 -0.95105505
0.19236073 -0.24183057 -0.95105857
-0.20273313 -0.23321781 -0.95105517
-0.19863196 -0.23672041 -0.95105487
-0.18000178 -0.23039176 -0.95630312
-0.17390312 -0.23501648 -0.95630616
-0.16769733 -0.23949668 -0.95630342
0.16769738 -0.23949675 -0.95630372
0.17390312 -0.2350166 -0.95630646
0.18000183 -0.23039183 -0.95630336
0.19863202 -0.23672049 -0.95105523
0.20273313 -0.2332179 -0.95105541
-0.21270576 -0.22414511 -0.95105904
-0.20677251 -0.22964409 -0.95105529
-0.19181286 -0.22065546 -0.95630312
-0.18596454 -0.22559308 -0.95630622
0.18596458 -0.2255931 -0.9563064
0.19181283 -0.22065553 -0.95630324
0.20677255 -0.22964413 -0.95105541
0.21270576 -0.22414508 -0.95105904
-0.22414513 -0.21270573 -0.95105904
-0.21850787 -0.21850784 -0.95105571
-0.20309813 -0.21031432 -0.95630282
-0.19751632 -0.21555121 -0.9563061
0.19751634 -0.21555121 -0.9563061
0.20309812 -0.21031429 -0.95630276
0.21850781 -0.21850789 -0.95105565
0.2241451 -0.21270576 -0.95105904
-0.23321784 -0.2027332 -0.95105541
-0.22964415 -0.20677252 -0.95105541
-0.21031427 -0.20309813 -0.95630276
-0.20673773 -0.20673768 -0.95630288
0.20673765 -0.20673773 -0.95630276
0.21031423 -0.20309818 -0.95630276
0.22964416 -0.20677251 -0.95105541
0.23321784 -0.2027332 -0.95105541
-0.24183059 -0.19236071 -0.95105857
-0.23672049 -0.19863205 -0.95105523
-0.22065547 -0.1918129 -0.95630324
-0.21555124 -0.19751631 -0.9563061
0.21555127 -0.19751629 -0.9563061
0.22065547 -0.1918129 -0.95630324
0.23672043 -0.19863209 -0.95105523
0.24183056 -0.19236074 -0.95105857
-0.24999973 -0.18163538 -0.95105523
-0.2467916 -0.18597081 -0.95105505
-0.23039185 -0.1800018 -0.95630336
-0.22559309 -0.18596461 -0.9563064
0.22559306 -0.18596467 -0.9563064
0.23039185 -0.1800018 -0.95630336
0.24679162 -0.1859708 -0.95105505
0.24999967 -0.18163542 -0.95105523
-0.25465986 -0.17502289 -0.95105851
-0.2350166 -0.17390311 -0.95630646
0.2350166 -0.17390312 -0.95630646
0.25465983 -0.17502294 -0.95105851
-0.26206079 -0.16375376 -0.95105463
-0.25916308 -0.16830246 -0.95105493
-0.24238695 -0.16349208 -0.9563036
-0.23949674 -0.1676974 -0.95630372
0.23949671 -0.16769746 -0.95630372
0.24238691 -0.16349213 -0.9563036
0.25916308 -0.16830243 -0.95105493
0.26206079 -0.16375376 -0.95105463
-0.2662484 -0.15683228 -0.95105809
-0.25061134 -0.15058243 -0.95630366
-0.246575 -0.15708558 -0.95630658
0.246575 -0.15708557 -0.95630658
0.25061131 -0.15058248 -0.95630366
0.26624838 -0.15683234 -0.95105809
-0.27282012 -0.14506106 -0.95106345
-0.25445819 -0.14396554 -0.95630628
0.25445825 -0.14396553 -0.95630628
0.27282014 -0.14506102 -0.95106345
-0.28006384 -0.13059592 -0.95105404
-0.277742 -0.1354638 -0.95105416
-0.26050472 -0.13273379 -0.95630288
-0.25814855 -0.13725999 -0.95630294
0.25814855 -0.13725999 -0.95630294
0.26050472 -0.13273379 -0.95630288
0.27774197 -0.13546385 -0.95105416
0.28006381 -0.13059597 -0.95105404
-0.28337657 -0.12321562 -0.95105714
-0.26388064 -0.1258646 -0.95630533
0.26388061 -0.12586464 -0.95630533
0.28337657 -0.12321561 -0.95105714
-0.28750426 -0.11325094 -0.95105755
-0.26811248 -0.1165786 -0.95630527
0.26811251 -0.1165786 -0.95630527
0.28750423 -0.11325097 -0.95105761
-0.29128146 -0.10314818 -0.95105749
-0.2720176 -0.10715058 -0.95630497
0.2720176 -0.10715061 -0.95630497
0.29128146 -0.1031482 -0.95105749
-0.29470378 -0.092919752 -0.9510572
-0.27641639 -0.095177792 -0.95630985
0.27641639 -0.095177807 -0.95630985
0.29470378 -0.092919752 -0.9510572
-0.29704535 -0.085176364 -0.95105362
-0.28104502 -0.080588348 -0.95630193
-0.2795957 -0.08548101 -0.95630181
0.2795957 -0.085480995 -0.95630181
0.28104499 -0.080588408 -0.95630193
0.29704532 -0.085176431 -0.95105362
-0.29916298 -0.077368796 -0.95105731
-0.28304848 -0.073201314 -0.95630527
0.28304848 -0.073201336 -0.95630527
0.29916298 -0.077368826 -0.95105731
-0.30168089 -0.066881061 -0.95105743
-0.28543085 -0.063278504 -0.9563055
0.28543085 -0.063278496 -0.9563055
0.30168089 -0.066881053 -0.95105743
-0.30383113 -0.056311775 -0.95105714
-0.28746536 -0.053278554 -0.95630562
0.28746533 -0.05327861 -0.9563055
0.30383113 -0.056311842 -0.95105714
-0.30561122 -0.045673892 -0.95105684
-0.28914946 -0.043213665 -0.95630497
0.28914949 -0.043213662 -0.95630509
0.30561119 -0.045673884 -0.95105678
-0.30701903 -0.034980375 -0.95105678
-0.29048145 -0.033096157 -0.95630497
0.29048151 -0.033096228 -0.95630515
0.30701905 -0.034980446 -0.95105684
-0.30805284 -0.024244284 -0.95105684
-0.29145947 -0.022938354 -0.95630467
0.29145959 -0.022938399 -0.95630521
0.30805302 -0.024244329 -0.95105737
-0.30871138 -0.013478617 -0.95105714
-0.2920824 -0.012752581 -0.95630461
0.29208252 -0.012752615 -0.95630503
0.3087115 -0.013478653 -0.95105755
-0.30899376 -0.0026965602 -0.95105726
-0.29234964 -0.0025513081 -0.95630497
0.29232648 -0.0051026368 -0.95630199
0.30896917 -0.0053931405 -0.95105398
-0.30896914 0.0053930935 -0.95105392
-0.29232648 0.005102593 -0.95630199
0.292357 0.0017008809 -0.95630467
0.30900151 0.0017977153 -0.95105696
-0.3087115 0.013478642 -0.95105749
-0.29208252 0.012752606 -0.95630497
0.2920824 0.012752594 -0.95630467
0.30871141 0.013478632 -0.9510572
-0.30805302 0.024244316 -0.95105737
-0.29145959 0.022938389 -0.95630521
0.29145947 0.022938356 -0.95630473
0.30805287 0.024244282 -0.9510569
-0.30701905 0.034980401 -0.95105684
-0.29048151 0.033096179 -0.95630509
0.29048145 0.033096179 -0.95630497
0.30701903 0.034980401 -0.95105678
-0.30561119 0.045673911 -0.95105678
-0.28914943 0.043213684 -0.95630497
0.28914946 0.043213677 -0.95630503
0.30561119 0.045673903 -0.95105678
-0.30383113 0.056311794 -0.95105714
-0.28746533 0.053278573 -0.9563055
0.28746536 0.053278554 -0.95630562
0.30383113 0.056311771 -0.95105714
-0.30168092 0.066881046 -0.95105743
-0.28543085 0.063278489 -0.9563055
0.28543085 0.063278489 -0.9563055
0.30168092 0.066881053 -0.95105743
-0.29916298 0.077368818 -0.95105731
-0.28304851 0.073201329 -0.95630527
0.28304851 0.073201314 -0.95630527
0.29916298 0.077368803 -0.95105731
-0.29704535 0.085176386 -0.95105362
-0.28104502 0.080588363 -0.95630193
-0.2795957 0.085481025 -0.95630181
0.27959573 0.085480981 -0.95630181
0.28104502 0.080588363 -0.95630193
0.29704535 0.085176386 -0.95105362
-0.29470378 0.092919782 -0.9510572
-0.27641639 0.095177807 -0.95630985
0.27641639 0.095177799 -0.95630985
0.29470381 0.092919752 -0.9510572
-0.29128146 0.10314819 -0.95105749
-0.2720176 0.10715059 -0.95630497
0.2720176 0.10715058 -0.95630497
0.29128146 0.10314818 -0.95105749
-0.28750426 0.11325096 -0.95105755
-0.26811248 0.11657862 -0.95630527
0.26811248 0.11657862 -0.95630527
0.28750423 0.11325094 -0.95105761
-0.28337657 0.12321564 -0.95105708
-0.26388061 0.12586461 -0.95630533
0.26388061 0.12586461 -0.95630533
0.28337657 0.12321565 -0.95105708
-0.28006381 0.13059594 -0.95105404
-0.277742 0.13546382 -0.95105416
-0.26050469 0.13273381 -0.95630288
-0.25814852 0.13726002 -0.95630294
0.25814852 0.13726002 -0.95630294
0.26050472 0.13273378 -0.95630288
0.277742 0.13546382 -0.95105416
0.28006381 0.13059592 -0.95105404
-0.27282012 0.14506106 -0.95106345
-0.25445825 0.14396553 -0.95630628
0.25445822 0.14396554 -0.95630628
0.27282014 0.14506106 -0.95106345
-0.26624838 0.15683229 -0.95105809
-0.25061131 0.15058245 -0.95630366
-0.246575 0.1570856 -0.95630658
0.246575 0.1570856 -0.95630658
0.25061131 0.15058246 -0.95630366
0.26624838 0.15683229 -0.95105809
-0.26206079 0.16375378 -0.95105463
-0.25916308 0.16830248 -0.95105493
-0.24238694 0.1634921 -0.9563036
-0.23949674 0.16769743 -0.95630372
0.23949674 0.16769743 -0.95630372
0.24238697 0.16349207 -0.9563036
0.25916308 0.16830248 -0.95105493
0.26206079 0.16375376 -0.95105463
-0.25465983 0.1750229 -0.95105851
-0.2350166 0.17390312 -0.95630646
0.2350166 0.17390312 -0.95630646
0.25465989 0.17502289 -0.95105851
-0.24999973 0.18163539 -0.95105523
-0.2467916 0.18597083 -0.95105505
-0.23039185 0.18000181 -0.95630336
-0.22559309 0.18596461 -0.9563064
0.2255931 0.1859646 -0.9563064
0.23039183 0.18000183 -0.95630336
0.24679162 0.1859708 -0.95105505
0.2499997 0.18163541 -0.95105523
-0.24183056 0.19236073 -0.95105857
-0.23672047 0.19863206 -0.95105523
-0.22065552 0.19181287 -0.95630324
-0.21555124 0.19751631 -0.9563061
0.21555124 0.19751631 -0.9563061
0.22065549 0.19181289 -0.95630324
0.23672047 0.19863205 -0.95105523
0.24183059 0.19236073 -0.95105857
-0.23321787 0.20273317 -0.95105541
-0.22964415 0.20677252 -0.95105541
-0.21031426 0.20309815 -0.95630276
-0.20673768 0.20673768 -0.95630276
0.20673768 0.20673768 -0.95630276
0.21031427 0.20309813 -0.95630276
0.22964415 0.20677252 -0.95105541
0.23321785 0.20273319 -0.95105541
-0.2241451 0.21270576 -0.95105904
-0.21850784 0.21850784 -0.95105565
-0.2030981 0.2103143 -0.95630276
-0.19751631 0.21555124 -0.9563061
0.19751631 0.21555124 -0.9563061
0.20309813 0.21031427 -0.95630276
0.21850784 0.21850784 -0.95105565
0.2241451 0.21270576 -0.95105904
-0.21270573 0.22414511 -0.95105904
-0.20677254 0.22964415 -0.95105541
-0.19181287 0.22065549 -0.95630324
-0.1859646 0.2255931 -0.9563064
0.18596461 0.22559309 -0.9563064
0.19181289 0.22065547 -0.95630324
0.20677251 0.22964416 -0.95105541
0.21270576 0.2241451 -0.95105904
-0.20273317 0.23321785 -0.95105541
-0.19863206 0.23672047 -0.95105523
-0.18000181 0.23039185 -0.95630336
-0.17390312 0.2350166 -0.95630646
-0.16769743 0.23949672 -0.95630372
0.16769743 0.23949674 -0.95630372
0.17390314 0.2350166 -0.95630646
0.18000183 0.23039183 -0.95630336
0.19863206 0.23672047 -0.95105523
0.20273319 0.23321784 -0.95105541
-0.1923607 0.24183059 -0.95105857
-0.18597083 0.2467916 -0.95105505
-0.16349204 0.24238697 -0.9563036
-0.1570856 0.246575 -0.95630658
0.1570856 0.246575 -0.95630658
0.16349207 0.24238695 -0.9563036
0.18597081 0.24679162 -0.95105505
0.19236073 0.24183056 -0.95105857
-0.18163539 0.2499997 -0.95105523
-0.17502287 0.25465989 -0.95105851
-0.16830248 0.25916308 -0.95105493
-0.15058245 0.25061131 -0.95630366
-0.14396554 0.25445822 -0.95630628
-0.13726002 0.25814852 -0.95630294
0.13726002 0.25814852 -0.95630294
0.14396553 0.25445825 -0.95630628
0.15058246 0.25061131 -0.95630366
0.16830248 0.25916308 -0.95105493
0.17502289 0.25465986 -0.95105851
0.18163542 0.2499997 -0.95105523
-0.16375378 0.26206079 -0.95105463
-0.15683229 0.26624838 -0.95105809
-0.13273376 0.26050472 -0.95630288
-0.12586461 0.26388061 -0.95630533
-0.11657862 0.26811248 -0.95630527
0.11657863 0.26811248 -0.95630527
0.1258646 0.26388064 -0.95630533
0.13273379 0.26050472 -0.95630288
0.15683228 0.26624838 -0.95105809
0.16375376 0.26206079 -0.95105463
-0.14506103 0.27282014 -0.95106345
-0.13546382 0.277742 -0.95105416
-0.10715058 0.2720176 -0.95630497
-0.095177792 0.27641639 -0.95630985
-0.085480995 0.2795957 -0.95630181
0.08548101 0.2795957 -0.95630181
0.095177799 0.27641639 -0.95630985
0.10715059 0.2720176 -0.95630497
0.13546382 0.277742 -0.95105416
0.14506106 0.27282014 -0.95106345
-0.13059594 0.28006381 -0.95105404
-0.12321564 0.28337657 -0.95105714
-0.11325094 0.28750426 -0.95105755
-0.080588363 0.28104502 -0.95630187
-0.073201314 0.28304851 -0.95630527
-0.063278474 0.28543085 -0.9563055
-0.053278562 0.28746536 -0.95630562
-0.043213669 0.28914946 -0.95630497
0.043213677 0.28914943 -0.95630497
0.053278565 0.28746533 -0.9563055
0.063278489 0.28543085 -0.9563055
0.073201329 0.28304851 -0.95630527
0.080588371 0.28104502 -0.95630187
0.11325096 0.28750423 -0.95105761
0.12321565 0.28337657 -0.95105714
0.13059591 0.28006384 -0.95105404
-0.10314818 0.29128146 -0.95105749
-0.092919752 0.29470378 -0.9510572
