# .PCD v0.7 - Point Cloud Data file format
VERSION 0.7
FIELDS x y z
SIZE 4 4 4
TYPE F F F
COUNT 1 1 1
WIDTH 1450
HEIGHT 1
VIEWPOINT 0 0 0 1 0 0 0
POINTS 1450
DATA ascii
-4.7406693 -1.0105078 -0.54431552
4.7581978 -1.0171041 -0.54096699
-4.7802777 -0.87498981 -0.54210001
-4.8255219 -0.7484104 -0.54240006
4.8286538 -0.748362 -0.54577506
-4.8325748 -0.6762538 -0.5413847
4.8505397 -0.67808008 -0.54318881
-4.8537154 -0.60576558 -0.54408675
4.8755999 -0.54327935 -0.54033005
-4.8725548 -0.47767717 -0.54578859
4.8855076 -0.47453764 -0.5464946
-4.8848791 -0.40363556 -0.5454219
4.8970466 -0.40866426 -0.54413348
4.897871 -0.34089613 -0.54329622
-4.8892732 -0.33718154 -0.54045981
-4.894907 -0.27217278 -0.5409835
4.9103432 -0.26800603 -0.54428649
-4.906311 -0.20040639 -0.54433542
4.9150214 -0.19974755 -0.54601467
4.9160194 -0.12967573 -0.54422593
4.9163413 -0.068351299 -0.54213178
-4.9101892 -0.05965599 -0.54493451
-4.9090605 0.0027017107 -0.54528999
4.9221659 0.069608159 -0.54654151
-4.9045339 0.14619704 -0.54226172
-4.9053769 0.21547204 -0.54619342
4.9115577 0.21447018 -0.54321462
-4.9024258 0.27939147 -0.54409575
-4.8941426 0.34330946 -0.54053658
-4.879065 0.48389074 -0.5405404
4.8741493 0.5561257 -0.54574323
4.8583136 0.61850411 -0.54094452
4.8450708 0.68860626 -0.54314834
4.8284035 0.75273997 -0.54218084
-4.7995386 0.82165211 -0.54634094
4.8114619 0.82405984 -0.54114127
-4.7856755 0.89263958 -0.54212064
4.7922568 0.8930971 -0.5425095
-4.7657261 0.95792425 -0.54441929
4.7757182 0.95811594 -0.54620862
4.7521281 1.0182239 -0.54462963
-4.717051 1.086823 -0.54003137
4.7264113 1.0891677 -0.54384643
-4.6929026 1.1573207 -0.54052204
4.7090364 1.1539906 -0.54488975
-4.6699877 1.22498 -0.5420258
4.6806154 1.2251766 -0.54613459
4.6543527 1.2828389 -0.54289037
-4.6178823 1.345192 -0.54036087
-4.5811357 1.4172055 -0.54059762
4.5949812 1.4177817 -0.54496145
-4.5522609 1.4791152 -0.54218167
-4.523993 1.5390519 -0.54199839
4.5307894 1.5396725 -0.54026222
-4.4820676 1.6035408 -0.5466252
4.5007715 1.6081004 -0.54362988
4.4556875 1.6639348 -0.54334641
-4.3726258 1.7870575 -0.54648483
4.3853989 1.7954866 -0.54417872
-4.3322196 1.8515207 -0.54381979
4.3475957 1.8513348 -0.54437214
4.3072252 1.9075836 -0.54199916
-4.2553363 1.9667468 -0.54269356
4.2587895 1.9690136 -0.54614049
-4.2121119 2.0272386 -0.54340398
-4.1657562 2.0939999 -0.54413372
-4.1146736 2.1467028 -0.54213864
4.1235952 2.144928 -0.54397428
-4.0737128 2.2020559 -0.5444178
4.0826812 2.2017004 -0.54557711
4.0371575 2.2583005 -0.54380834
-4.0258927 2.2648337 -0.54206556
3.9806912 2.3162904 -0.54145461
3.9280937 2.376436 -0.54152143
3.8783872 2.4276776 -0.54662752
3.8273067 2.4787531 -0.54580969
3.767436 2.5328908 -0.54330593
-3.7085924 2.5810225 -0.54638177
3.7122769 2.5857189 -0.54555821
-3.593648 2.684592 -0.54168618
3.5961452 2.6905761 -0.54518896
-3.5326791 2.739753 -0.54030907
3.5398138 2.737273 -0.54280537
-3.4755595 2.7864928 -0.54592663
3.4808023 2.7862141 -0.54039228
-3.4142911 2.8308783 -0.54440963
3.4225006 2.8376684 -0.54587287
3.3555124 2.8767014 -0.54638708
-3.3486927 2.8847275 -0.5441435
-3.2822304 2.9244204 -0.54210699
3.2974355 2.927386 -0.54011828
3.2332513 2.9695144 -0.5464946
3.1689024 3.0154462 -0.54170007
-3.1501398 3.0212579 -0.54234058
3.0960944 3.0610259 -0.54627407
-3.021035 3.1027181 -0.54012895
-2.954057 3.149672 -0.54340464
2.9606841 3.1469514 -0.5402084
2.8932276 3.1911237 -0.54504049
-2.8161314 3.2302239 -0.54368526
2.7528744 3.2617056 -0.54140037
-2.6709132 3.3064711 -0.54006499
2.6821575 3.3022134 -0.5411275
2.6101103 3.3369017 -0.54654473
-2.5315766 3.3756959 -0.5443334
2.5335383 3.3806527 -0.54531789
-2.4515958 3.4135754 -0.54166043
2.4598186 3.4142735 -0.54273963
2.3151717 3.4763415 -0.54295158
-2.2289362 3.5095527 -0.5456121
-2.1480181 3.5400488 -0.54429477
2.0812266 3.5711422 -0.54409027
-1.9978583 3.5962825 -0.54637957
1.9999635 3.5933366 -0.54300576
-1.8403156 3.651058 -0.54276001
-1.7548757 3.6791174 -0.54446244
1.6842349 3.6987693 -0.54021305
-1.674292 3.7036197 -0.54275662
-1.5111427 3.7464287 -0.5431481
1.5244112 3.747272 -0.54616076
-1.4372479 3.7698481 -0.5448783
1.4463338 3.7632687 -0.54047322
-1.3531241 3.7845809 -0.54083574
1.3637199 3.7846177 -0.54127222
1.2799374 3.8064811 -0.54465669
1.1894825 3.8240025 -0.54431248
-1.0150522 3.8487761 -0.54588985
-0.92853272 3.8690531 -0.54231256
-0.76472276 3.8891895 -0.54656571
0.86217016 3.8820899 -0.54542017
0.77403611 3.890156 -0.54579252
-0.42392457 3.9194603 -0.54452085
0.52248478 3.9197962 -0.54298466
0.43251044 3.923887 -0.54550874
-0.34210667 3.9308174 -0.54035455
0.088662155 3.933599 -0.5435248
0.26577032 3.9374197 -0.54424727
0.0012078871 3.9426656 -0.54470313
0.0093672881 -3.9240141 -0.53933918
-0.51231784 -3.9065645 -0.5395534
-0.67705643 -3.8910172 -0.53728026
0.69293934 -3.8858609 -0.53690273
-0.76227748 -3.8796661 -0.53895175
0.9419083 -3.8577645 -0.53683376
-1.0982748 -3.8248472 -0.53803343
-1.3506552 -3.7738714 -0.53932989
1.3586508 -3.7792344 -0.53859633
1.6085305 -3.7089765 -0.53949928
-1.7559402 -3.6694863 -0.5395329
-1.9989749 -3.5893209 -0.53692764
2.0055695 -3.5859663 -0.53870255
2.0846918 -3.5574634 -0.53800857
-2.2226772 -3.4963341 -0.53898388
2.2419202 -3.4967117 -0.53911024
-2.303371 -3.4698086 -0.53877103
-2.3824763 -3.4325891 -0.53837812
2.4638615 -3.3993559 -0.53690797
2.5378637 -3.3674357 -0.53682959
-2.6767008 -3.294873 -0.53987509
-2.7485342 -3.2515068 -0.53939748
-2.8129625 -3.2138276 -0.53801471
2.8228083 -3.2182541 -0.53814399
2.89136 -3.1765234 -0.53753823
2.9604607 -3.1357126 -0.53990322
-3.1559036 -3.0093219 -0.53943151
3.2318847 -2.968107 -0.53983736
-3.2811673 -2.9185345 -0.53738821
3.2960265 -2.9137599 -0.53906244
3.3553808 -2.8745773 -0.53850001
-3.3483708 -2.8669059 -0.5383907
3.4847929 -2.7713194 -0.53850996
-3.5312307 -2.7225833 -0.53796154
3.6017292 -2.6791472 -0.53781706
-3.6481657 -2.6308181 -0.53706992
3.6565003 -2.6291702 -0.53767383
3.7159379 -2.5745983 -0.53901309
-3.7619517 -2.5259988 -0.53949416
3.9850054 -2.3069873 -0.53675598
-4.0241156 -2.250917 -0.53839129
4.029541 -2.2526417 -0.53701007
-4.0682569 -2.193553 -0.53906202
4.1722412 -2.0747228 -0.53991801
-4.2950134 -1.903216 -0.53771782
4.344882 -1.8427719 -0.53754151
4.3858042 -1.7824354 -0.53972077
-4.6107764 -1.3375716 -0.53861725
4.677176 -1.206906 -0.53799844
-4.7214923 -1.0821906 -0.53683865
-4.7678761 -0.94234431 -0.5399195
4.7746973 -0.94247335 -0.53726619
4.8000145 -0.87646502 -0.53945076
-4.8066435 -0.81119984 -0.53753203
4.8103366 -0.81593221 -0.53863126
4.8578782 -0.61268938 -0.5387938
-4.8608422 -0.54698801 -0.53685176
-4.908803 -0.13239194 -0.53891188
4.9183483 0.0085207913 -0.53749323
-4.9064145 0.071405888 -0.53972805
4.9173341 0.13829997 -0.53734016
4.912571 0.28065443 -0.5388127
4.9012179 0.34436423 -0.53949308
-4.8825941 0.41446453 -0.53780448
4.8941398 0.41189569 -0.53971189
4.8886356 0.48827124 -0.53932512
-4.8625464 0.55339348 -0.53795701
-4.8494644 0.61561519 -0.53756696
-4.8316483 0.68740028 -0.53858376
-4.8221207 0.75298929 -0.53860354
-4.7415848 1.0252087 -0.53825706
-4.6425114 1.2814825 -0.53710562
4.6214728 1.3510305 -0.53724581
4.5680599 1.4742684 -0.53862232
-4.4511261 1.6639405 -0.53936398
-4.4133992 1.724613 -0.53831011
4.4208245 1.7264761 -0.53826576
-4.2988739 1.9100207 -0.53695655
4.2147012 2.0334024 -0.5378269
4.1716137 2.0917003 -0.53689361
-3.968363 2.3199453 -0.53749365
-3.9198873 2.3742855 -0.53919381
-3.8722527 2.4245453 -0.53749305
-3.8176439 2.4808669 -0.53911024
-3.757432 2.5288069 -0.53799182
-3.648314 2.6397088 -0.53822988
3.6543007 2.6395063 -0.53804094
-3.2203395 2.9771693 -0.53790051
-3.0911865 3.0583789 -0.53982115
3.0300915 3.1045539 -0.53847152
-2.8874936 3.1874974 -0.53861099
2.8272738 3.2254565 -0.53989118
-2.7457445 3.270355 -0.53677475
-2.6024933 3.3411832 -0.53990787
-2.3750651 3.4402044 -0.53945065
2.3901448 3.4402575 -0.53824407
-2.3032176 3.4759257 -0.5397073
2.2372973 3.5100336 -0.53704947
2.1570063 3.5441756 -0.53780544
-2.0689588 3.5676157 -0.53821456
1.9265825 3.6252699 -0.53930014
-1.9187716 3.6302066 -0.53998744
1.8428886 3.6564207 -0.53778839
1.7632166 3.673048 -0.53839159
-1.5935502 3.7190001 -0.5385564
1.607319 3.7283707 -0.53985214
-1.2626263 3.8071704 -0.5383209
-1.185907 3.8198001 -0.53972775
-1.1005036 3.8349891 -0.53710604
1.1097498 3.8356676 -0.53940594
1.0233856 3.8517444 -0.53961778
0.93822271 3.8668108 -0.53835976
-0.84616864 3.8790679 -0.53691971
-0.67699093 3.8964739 -0.53774387
0.68602872 3.8955009 -0.53904456
-0.59438002 3.9096608 -0.53876901
-0.50813609 3.9189594 -0.53855926
0.60150427 3.9134145 -0.53694129
0.34902048 3.9294007 -0.53769833
-0.2562277 3.9364133 -0.53867644
-0.16816707 3.9370465 -0.53838754
-0.083306171 3.9370279 -0.53914481
0.17734829 3.931649 -0.53957665
-0.17063868 -3.9347584 -0.52062488
-0.59246242 -3.9013889 -0.52090573
0.69140065 -3.8949814 -0.52067381
2.6848631 -3.3012319 -0.52093929
2.8342459 -3.2260587 -0.52018756
-3.5355134 -2.7310836 -0.52006882
3.8885293 -2.4195418 -0.52041572
3.9364054 -2.368629 -0.52058733
-4.0244942 -2.2550056 -0.52070135
4.0909972 -2.2018886 -0.52028728
4.2644973 -1.9658574 -0.52090645
4.5398984 -1.5341367 -0.52080053
-4.5934901 -1.4059764 -0.52022898
4.6597476 -1.2761594 -0.52077061
4.738214 -1.077515 -0.52086782
-4.8459592 -0.6800313 -0.52008528
4.9285278 0.0047994386 -0.52002525
4.9256687 0.077902198 -0.52069491
-4.9094019 0.27704528 -0.52060533
4.7188163 1.1527195 -0.52062887
-4.556818 1.4845512 -0.52033955
4.1322236 2.1497729 -0.52076048
-3.4130805 2.8434134 -0.52069485
-3.0248206 3.104197 -0.52082628
2.8984139 3.1906831 -0.52063102
-2.5336661 3.3826127 -0.52072704
-1.8378648 3.655823 -0.52005672
1.1080687 3.8445249 -0.52007103
-0.67723286 3.9083643 -0.52001584
-0.59612447 3.9179716 -0.52065134
-0.25086594 -3.9313159 -0.51611048
-0.076690495 -3.9373341 -0.51712102
0.002932044 -3.9351478 -0.51609284
0.09495277 -3.936233 -0.5187574
-0.34193799 -3.9272075 -0.51665002
0.1733501 -3.9287269 -0.51668835
0.26194215 -3.9280996 -0.51820868
0.34775981 -3.9282544 -0.51342636
-0.50905341 -3.912869 -0.51711321
-0.42421988 -3.9185052 -0.51207435
0.43726537 -3.917922 -0.51769048
0.5216791 -3.9097865 -0.51526296
0.60136032 -3.9051645 -0.51274657
-0.67958808 -3.8988256 -0.51821226
-0.76197487 -3.8833969 -0.51845694
0.77671552 -3.8855739 -0.51937693
-0.85226381 -3.8783569 -0.51485974
0.85529959 -3.8712945 -0.51529372
-0.9303261 -3.8633525 -0.51725793
0.94465142 -3.8597491 -0.51289576
-1.01421 -3.8476636 -0.5129084
1.0310525 -3.8445375 -0.51479137
-1.1075796 -3.8377292 -0.51657462
1.109213 -3.8354197 -0.51905876
-1.1845413 -3.8167946 -0.5156514
1.1955135 -3.8150942 -0.51767802
-1.2734811 -3.7999661 -0.51433688
1.2762336 -3.799773 -0.51135898
-1.3509456 -3.7828395 -0.51165456
1.362301 -3.7844229 -0.51349401
1.4403828 -3.7636244 -0.51878989
-1.4332401 -3.7597983 -0.51292461
-1.5168786 -3.7461865 -0.51902282
1.5305446 -3.7368438 -0.51287669
-1.5968031 -3.7182131 -0.5135529
1.6123136 -3.7186029 -0.51771814
-1.6765957 -3.6992681 -0.51541615
1.6848911 -3.6954038 -0.51962763
-1.7565986 -3.6719387 -0.51738238
1.7710387 -3.6762257 -0.51252025
-1.8396324 -3.648725 -0.51127696
1.8490469 -3.6437399 -0.51390833
1.9245996 -3.6258848 -0.51105952
-1.9188604 -3.6170042 -0.51147693
2.0052967 -3.5941899 -0.51393491
-2.0024018 -3.5899808 -0.51754749
-2.079742 -3.5628381 -0.51520646
2.0867646 -3.5638807 -0.51870316
-2.1520698 -3.5392876 -0.5162937
2.1639175 -3.5392296 -0.51649404
-2.228406 -3.503782 -0.51105249
2.2382782 -3.5078187 -0.51301295
-2.3078547 -3.4736042 -0.51926762
2.3166637 -3.4771397 -0.51342577
-2.3832166 -3.4434657 -0.51251829
2.3902566 -3.4451311 -0.51741278
2.4682803 -3.4105055 -0.51115048
-2.4552712 -3.409508 -0.51216167
-2.5340843 -3.372685 -0.51143855
2.5436449 -3.3691902 -0.51978707
-2.6047542 -3.340457 -0.51787227
2.6153467 -3.3387959 -0.51113546
-2.681433 -3.2976463 -0.51111388
2.7564116 -3.2607763 -0.51646274
-2.7521198 -3.2581117 -0.51621467
-2.8182645 -3.2257421 -0.51180565
-2.8891065 -3.1821454 -0.51618415
2.8964517 -3.1807728 -0.51885968
-2.9617932 -3.1377943 -0.51152045
2.9699869 -3.1370647 -0.51679742
-3.0288742 -3.1009057 -0.51772463
3.0360985 -3.1002445 -0.5158028
-3.0889008 -3.0517142 -0.51110733
3.1008742 -3.0544107 -0.51560503
3.1707189 -3.0144181 -0.5146364
-3.1570392 -3.0083494 -0.51368767
3.2358613 -2.9721894 -0.51724601
-3.2267656 -2.9665418 -0.51618117
-3.2906961 -2.9241772 -0.5135498
3.3013854 -2.9206293 -0.51538509
-3.3497748 -2.8758705 -0.5167464
3.3645554 -2.8711426 -0.51290035
3.4268987 -2.8308933 -0.51790601
-3.4139528 -2.8280549 -0.51192117
-3.475493 -2.7810781 -0.5156244
3.4826765 -2.7827711 -0.5171355
3.5436692 -2.731559 -0.5110032
-3.5962501 -2.6803446 -0.51734084
3.6049125 -2.6850617 -0.5120585
-3.6556666 -2.6324773 -0.51204342
3.6671195 -2.6298153 -0.51814675
-3.7158527 -2.5817878 -0.51817471
3.7192061 -2.5762477 -0.51119995
-3.7691898 -2.5295951 -0.51911914
3.7803586 -2.5283608 -0.51799172
-3.8235044 -2.4716699 -0.51656765
3.8313308 -2.4699085 -0.51720512
-3.8720553 -2.4220359 -0.51137942
-3.9230025 -2.3655136 -0.51522666
-3.982419 -2.3117182 -0.51910478
3.985568 -2.3069887 -0.51783484
4.0385118 -2.2501614 -0.51514864
-4.073081 -2.1955183 -0.51115978
-4.1268253 -2.1407561 -0.51936537
4.1383729 -2.1408582 -0.5188002
-4.1750193 -2.0813429 -0.51958746
4.183434 -2.0850289 -0.51275575
-4.2206388 -2.027909 -0.51770383
4.2211351 -2.0234218 -0.51463515
-4.2592177 -1.9621669 -0.51342124
-4.3024893 -1.9049656 -0.51129359
4.3097692 -1.901383 -0.51177561
-4.3396468 -1.8455094 -0.51589328
4.354516 -1.8426298 -0.51608515
-4.3858795 -1.7844955 -0.5123136
4.3947272 -1.7877539 -0.51402587
-4.4164386 -1.7252482 -0.51264721
4.4334297 -1.7242889 -0.51559252
-4.4555225 -1.6643325 -0.51877439
4.4635372 -1.6572595 -0.51630318
-4.4957638 -1.5940236 -0.51103449
4.5049729 -1.595912 -0.51540083
-4.5240307 -1.538958 -0.51463395
4.5749302 -1.4730065 -0.51835513
-4.5603023 -1.4675457 -0.51892549
4.6046157 -1.4086288 -0.51292282
4.631022 -1.3440766 -0.51916409
-4.6244459 -1.339424 -0.51598269
-4.6548057 -1.2778881 -0.51999182
-4.67307 -1.210869 -0.51479435
4.6861854 -1.2141137 -0.51404393
-4.7066002 -1.1513864 -0.51439434
4.7168875 -1.1511683 -0.5134244
-4.7321515 -1.0796717 -0.51873189
-4.754003 -1.017288 -0.51885819
4.7565322 -1.010421 -0.51333553
-4.7697902 -0.94938636 -0.51634175
4.782692 -0.94721878 -0.5170185
-4.7957306 -0.88184255 -0.51694626
4.7982979 -0.88307077 -0.51197529
-4.8140378 -0.81770903 -0.51756024
4.8170424 -0.81650841 -0.51931971
4.8367658 -0.75150776 -0.51625395
-4.8257256 -0.7458868 -0.51925373
4.8504486 -0.67996877 -0.51303333
-4.8552365 -0.61142862 -0.51927245
4.8664131 -0.60818136 -0.5167051
4.8792896 -0.54703909 -0.51352972
-4.8700314 -0.53863508 -0.5199492
-4.8831296 -0.47573343 -0.51325709
4.8874078 -0.47087047 -0.51297826
-4.8931975 -0.41163534 -0.51980102
4.9046564 -0.40763694 -0.51469344
-4.8966408 -0.33584329 -0.51205945
4.9129701 -0.33892584 -0.51556557
-4.9027367 -0.27418205 -0.51667517
4.9173226 -0.26546687 -0.51979864
-4.9143028 -0.20554954 -0.51506686
4.9264951 -0.19638227 -0.51673537
-4.9154897 -0.13578327 -0.5112378
4.929213 -0.13709079 -0.51423138
-4.9215441 -0.067917451 -0.5163908
4.9330873 -0.065167971 -0.51409781
-4.9148321 0.0091867875 -0.51637214
4.9286089 0.0071515609 -0.51170528
-4.9180861 0.069426067 -0.51585138
4.9256725 0.13840577 -0.51987797
-4.9157772 0.14078484 -0.51885194
4.9175019 0.20913216 -0.51936609
-4.9130793 0.21270774 -0.51906425
4.9124622 0.27722719 -0.51411641
-4.8984222 0.34794283 -0.51573807
4.9078736 0.34681255 -0.51484621
4.9034338 0.41816455 -0.51629913
-4.887074 0.42015359 -0.51159191
-4.8784151 0.48624218 -0.51462471
4.8905859 0.48167738 -0.51390404
-4.8752561 0.5533883 -0.51350635
4.8763938 0.55786407 -0.51216769
-4.8617711 0.62621272 -0.51713932
4.8706622 0.62282848 -0.51476586
4.8494601 0.68520731 -0.51761431
-4.8407216 0.69351995 -0.51840663
-4.8262014 0.75464129 -0.51694059
4.8430381 0.75518745 -0.51846117
-4.8096728 0.81922418 -0.51100451
4.8261542 0.82719195 -0.51753259
-4.793551 0.88767546 -0.51989341
4.7986202 0.89452523 -0.51456386
-4.7701311 0.95811886 -0.5193761
4.7801361 0.96179491 -0.51212353
-4.7500319 1.0254022 -0.51518089
4.7654467 1.0209284 -0.51863754
-4.7310691 1.088832 -0.51405609
4.7385788 1.0935489 -0.51223475
-4.7078638 1.1606017 -0.51987457
4.6900144 1.2185646 -0.5109998
-4.6778674 1.2209225 -0.51288599
-4.6552682 1.2837553 -0.51172709
4.6615224 1.2910101 -0.51440281
-4.620604 1.3558306 -0.51781052
4.6290135 1.3560464 -0.51323575
-4.5941982 1.4157579 -0.51980323
4.6022472 1.4199117 -0.51968896
4.5732336 1.4835969 -0.51150924
-4.5261936 1.548663 -0.51846629
4.5337582 1.547899 -0.51311815
-4.4890547 1.6080341 -0.51430178
4.5058703 1.6033108 -0.51430953
4.4690528 1.6650627 -0.51292902
-4.4598737 1.6736664 -0.51952589
-4.4215455 1.7326635 -0.51694137
4.4343619 1.7324058 -0.51517928
-4.382102 1.7913852 -0.51974177
4.3947263 1.7938684 -0.51417941
-4.3453026 1.858198 -0.51509827
4.3553591 1.8518269 -0.51290411
-4.3039284 1.9158602 -0.51627505
4.3142972 1.9179989 -0.51438218
4.2685199 1.9697679 -0.51563203
-4.2598729 1.9716084 -0.51692116
-4.2155499 2.0293899 -0.51725417
4.2226114 2.0342672 -0.51741427
-4.1664152 2.0956013 -0.51682764
4.1789637 2.090632 -0.51947933
-4.1259685 2.1512945 -0.51868165
-4.0752835 2.2080147 -0.51381522
4.0826168 2.2046409 -0.51967931
-4.0304799 2.2668657 -0.51448679
4.040575 2.2676592 -0.51940763
-3.9808245 2.318222 -0.51227468
3.9886854 2.3222961 -0.51384699
-3.9283419 2.3760452 -0.51204211
3.933332 2.3749375 -0.51835197
-3.8774378 2.4264095 -0.5180617
3.8877804 2.4271729 -0.51588196
-3.8226056 2.4796848 -0.51131219
3.8323219 2.4886138 -0.51766014
-3.770576 2.5324221 -0.51268137
3.7742202 2.5358417 -0.51750767
-3.7138102 2.5939412 -0.51164949
3.7237196 2.5900071 -0.51209438
-3.6569827 2.6377139 -0.51517582
3.6603043 2.6446409 -0.51893681
3.6037099 2.6879072 -0.51462299
-3.6006031 2.6916826 -0.51521629
-3.5342481 2.7370918 -0.51419634
3.5447369 2.7381816 -0.51277208
-3.4772062 2.7932448 -0.51707172
3.4857664 2.7942572 -0.51456308
3.4260073 2.8375001 -0.51768887
-3.3540065 2.8869908 -0.51230794
3.3607662 2.8856454 -0.5134396
3.2999973 2.929678 -0.51149952
-3.2942948 2.9306693 -0.51953197
-3.2301469 2.9743447 -0.51227754
3.2306952 2.9808593 -0.51192385
3.1686308 3.0176978 -0.51817089
-3.1643517 3.0265942 -0.51831031
-3.0910783 3.0648839 -0.51189774
3.1057546 3.0689292 -0.51253176
3.0373478 3.1127589 -0.51375079
2.9711752 3.1471083 -0.5123927
-2.958899 3.1549897 -0.5192647
-2.8913934 3.1897802 -0.51814187
-2.8162923 3.2304521 -0.51775098
2.8266213 3.2345524 -0.51183069
-2.7497396 3.2673838 -0.5137735
2.7621777 3.268976 -0.51797611
2.6837697 3.3095024 -0.51330203
-2.6790547 3.310941 -0.51768041
-2.6074619 3.3434026 -0.51729548
2.618794 3.341615 -0.51104313
2.5449634 3.3777728 -0.51315904
-2.4565778 3.4150615 -0.5113911
2.4699359 3.4161863 -0.51308721
2.3879113 3.4469976 -0.51551521
-2.3837352 3.4542575 -0.51790446
-2.3106358 3.4865727 -0.51994556
2.3207996 3.4856095 -0.5169127
-2.2293618 3.5187578 -0.51868623
2.2417638 3.5151701 -0.51581436
2.1634054 3.549983 -0.51203614
-2.1493042 3.5501664 -0.5193662
-2.078979 3.5761781 -0.51608145
2.0861511 3.5718901 -0.51431268
2.0070632 3.5990911 -0.51110709
-1.9983976 3.6025736 -0.5166719
1.9312203 3.6284511 -0.51532173
-1.9194969 3.6356962 -0.51996595
1.849465 3.6542125 -0.514364
-1.7621723 3.6782529 -0.51146442
1.7694067 3.6783056 -0.51317132
-1.6794616 3.7081795 -0.51398534
1.6866949 3.7102997 -0.51845908
-1.60262 3.7266572 -0.51898855
1.6035419 3.7339396 -0.51679051
-1.5120502 3.755172 -0.51851922
1.5274726 3.7548585 -0.51931524
-1.4303818 3.7677851 -0.51598889
1.449543 3.7718291 -0.51402557
-1.3536625 3.7933471 -0.51409209
1.3622724 3.7962048 -0.51459986
-1.2723194 3.8055954 -0.51370251
1.2783668 3.8097401 -0.51286554
-1.1869408 3.8255129 -0.51332349
-1.1014841 3.8383596 -0.51103407
1.1917963 3.8312304 -0.51244122
-1.0209975 3.854557 -0.51317894
1.029789 3.8542929 -0.51824999
-0.93540031 3.8693771 -0.51667714
0.94215566 3.8727884 -0.51753306
-0.85057819 3.8843882 -0.51315808
0.85542834 3.8878915 -0.51889944
0.77315277 3.8996708 -0.51957548
-0.76698893 3.9002631 -0.51677579
0.69231111 3.905694 -0.51114839
0.60873598 3.9145608 -0.51642436
-0.50857764 3.9272618 -0.51526308
0.43106899 3.9278882 -0.51211619
0.52026767 3.927367 -0.51685148
-0.42186198 3.933862 -0.51947373
-0.34028032 3.9373457 -0.51312083
-0.24902117 3.935977 -0.51283628
0.18121289 3.9374669 -0.51570499
0.2661972 3.9384439 -0.5168485
0.35347319 3.933846 -0.51310474
-0.1629595 3.9403296 -0.51752853
-0.078418352 3.945112 -0.51232785
0.0054723416 3.9428487 -0.51126611
0.087997213 3.9418712 -0.51977271
-0.076407112 -3.9407973 -0.49041042
0.0083430177 -3.9429204 -0.49048966
-0.25698236 -3.9366791 -0.49399281
-0.16655786 -3.9331088 -0.49187568
0.25974217 -3.9348898 -0.49012375
0.34845164 -3.93082 -0.49474856
-0.42668012 -3.9265983 -0.49360371
0.4361853 -3.922296 -0.4912166
0.52339607 -3.9218047 -0.49252123
-0.59218752 -3.9100397 -0.49234068
-0.50560778 -3.9181554 -0.49321175
-0.84785545 -3.8752863 -0.49416319
0.86149538 -3.878823 -0.49386793
0.95077527 -3.8669529 -0.49495691
-1.0187289 -3.8568144 -0.49103281
-1.1049694 -3.84097 -0.49070427
1.1150689 -3.8415484 -0.49406865
-1.2681904 -3.8011072 -0.49437279
1.2774985 -3.8073995 -0.49152243
-1.3496062 -3.7831855 -0.49188679
-1.4388365 -3.7664828 -0.4940801
-1.5231212 -3.751328 -0.49347031
-1.603489 -3.7253838 -0.49470022
1.6142008 -3.7253623 -0.49053687
1.6943848 -3.707216 -0.49415302
-1.7579167 -3.6785326 -0.49077883
-1.9203563 -3.6243019 -0.49292997
1.9322888 -3.6295483 -0.49513677
2.0863972 -3.571631 -0.49488908
2.167701 -3.536911 -0.49365172
-2.309262 -3.4821239 -0.49294239
2.3245997 -3.4833188 -0.49198782
-2.4579949 -3.4127464 -0.49157122
-2.6108086 -3.3403428 -0.4948529
2.6215496 -3.3410029 -0.49108276
-2.6850755 -3.30566 -0.49259084
2.8313103 -3.2227931 -0.49249461
2.9016333 -3.186903 -0.49353486
-3.0950639 -3.0607758 -0.49176696
3.1742592 -3.0200799 -0.49166468
-3.1628368 -3.0176909 -0.4903335
-3.2338119 -2.9686193 -0.49232808
-3.297457 -2.9240742 -0.49268928
3.2999961 -2.9298527 -0.49152839
-3.3624022 -2.8823054 -0.49346498
3.3675117 -2.8775191 -0.49143547
-3.4219952 -2.8348007 -0.49330333
3.4259775 -2.8343012 -0.49484271
-3.4802914 -2.7807975 -0.49152964
-3.540103 -2.7402041 -0.492625
3.5491049 -2.7311563 -0.49117914
-3.6055672 -2.6829238 -0.49049982
3.6099598 -2.6867054 -0.49514189
-3.7210839 -2.57968 -0.49452814
-3.7720468 -2.5338941 -0.49378216
3.8328459 -2.4824369 -0.49245644
3.8953733 -2.4283233 -0.49049708
-3.9285216 -2.3644078 -0.49365383
3.9413824 -2.3694115 -0.49272186
4.0465646 -2.2586012 -0.49276784
4.0944929 -2.2001231 -0.49339733
-4.1743832 -2.0820596 -0.49236846
4.1822066 -2.0896847 -0.49240154
-4.2691088 -1.9667382 -0.49007723
4.2732744 -1.9648118 -0.49095973
-4.3035383 -1.9062992 -0.49057588
4.3146744 -1.9044749 -0.49063724
4.358429 -1.8446099 -0.4900887
-4.3923225 -1.7867301 -0.49028584
4.43364 -1.7222703 -0.49009982
4.540844 -1.5410746 -0.49057153
-4.5324697 -1.5380458 -0.4938623
-4.5630469 -1.4726676 -0.49146172
-4.6004634 -1.4113125 -0.49401009
-4.6245375 -1.3488196 -0.49020404
4.6400905 -1.3406616 -0.49105832
4.6630044 -1.2842048 -0.49289081
-4.6541076 -1.2761767 -0.49309474
4.7257547 -1.150123 -0.49487793
-4.7375603 -1.0775357 -0.49066156
-4.7592392 -1.0111884 -0.49123219
4.7681313 -1.0191309 -0.4935686
4.7889643 -0.95277274 -0.49327147
-4.7751203 -0.94984502 -0.49431586
4.8143125 -0.88438028 -0.49285635
4.8275123 -0.82009727 -0.4923225
-4.8542452 -0.68217629 -0.49121037
-4.8639526 -0.61375618 -0.4943032
4.8854375 -0.5480473 -0.49288943
-4.9044104 -0.41180894 -0.49390176
4.9064527 -0.41186854 -0.49493644
4.9221334 -0.33859327 -0.49298838
-4.9124441 -0.26983199 -0.49081191
4.9204612 -0.26592866 -0.49134526
-4.9196181 -0.19865385 -0.49355423
-4.9273739 -0.066912375 -0.49443457
4.938396 0.0074024936 -0.49216101
-4.9239454 0.14367166 -0.49063233
4.9285336 0.14541069 -0.49124783
-4.9203959 0.21452613 -0.49222192
-4.9049454 0.34818998 -0.49045858
4.9121799 0.41910717 -0.49223909
-4.8886194 0.48685426 -0.49322221
4.9040103 0.48914382 -0.49208215
-4.8618674 0.61812609 -0.49209151
-4.8489728 0.68930405 -0.49133036
4.8578525 0.68638498 -0.4922567
4.8476462 0.75311202 -0.49283686
4.8261395 0.82069427 -0.49510968
-4.7995453 0.89105743 -0.49493766
4.7657337 1.0239643 -0.49227309
-4.7337132 1.0938556 -0.49497384
-4.7147031 1.1566724 -0.49364513
4.6648159 1.2852354 -0.49060354
-4.656024 1.2936515 -0.49416077
-4.6307807 1.3577167 -0.49383125
-4.5643435 1.4872701 -0.49350917
-4.5304537 1.5449084 -0.49269763
4.5447221 1.5493242 -0.49476814
4.5056472 1.6087753 -0.49191621
-4.4291353 1.7381078 -0.49021709
4.3613954 1.8584112 -0.49324074
4.3161225 1.9209814 -0.49241814
-4.2681594 1.9759161 -0.49165523
4.2782793 1.9810038 -0.4902513
-4.2206364 2.0382316 -0.49129847
4.2304535 2.0333109 -0.49126178
-4.1761127 2.0997956 -0.49373758
4.1420922 2.1506958 -0.49196312
-4.080924 2.2067621 -0.49449968
4.049439 2.2722087 -0.49134043
3.9955714 2.3279214 -0.49454904
3.9411421 2.3825247 -0.49454418
-3.8804491 2.4291544 -0.49397117
3.7818077 2.5419064 -0.49149439
3.7308018 2.5976586 -0.49008191
-3.6607463 2.642174 -0.49469528
3.6676519 2.648823 -0.49338368
3.6148503 2.695837 -0.49136671
3.4281924 2.8455894 -0.49039334
-3.3554697 2.8897481 -0.49178374
3.366354 2.8857145 -0.49211439
-3.2931149 2.9374177 -0.49067542
3.1756806 3.0275671 -0.49213478
3.1129162 3.07037 -0.49272254
-3.0321355 3.109689 -0.49201667
3.0406191 3.1161196 -0.49371511
2.834971 3.2373528 -0.49485043
-2.7509909 3.2748475 -0.49440196
-2.6770003 3.3175664 -0.49144563
-2.6049614 3.3508942 -0.49404171
-2.5346632 3.3915761 -0.49247199
2.4711361 3.418088 -0.49012017
2.2410994 3.5169263 -0.4928591
2.0916359 3.5837755 -0.49022895
2.0136092 3.6044734 -0.49201313
-2.0005078 3.6111107 -0.49116266
1.9326632 3.6388226 -0.49066913
-1.8420506 3.6663027 -0.49459219
-1.7667845 3.6889985 -0.49205473
-1.602386 3.7312031 -0.4935956
1.5304841 3.7524097 -0.49197665
-1.514277 3.7603827 -0.49059224
-1.436551 3.7749538 -0.49293855
1.4451457 3.7753925 -0.49019817
-1.3565997 3.7979681 -0.49061099
1.281199 3.8198352 -0.49009413
1.1122243 3.846766 -0.49238792
-1.1051639 3.8512585 -0.4935261
-0.93472701 3.8769226 -0.49032873
-0.68018806 3.9090948 -0.4916307
-0.59444827 3.9234083 -0.49078411
-0.50578856 3.9292839 -0.49256954
0.52010369 3.9278052 -0.49434453
-0.42003441 3.939419 -0.49146041
-0.33502918 3.9434054 -0.49058628
-0.2483236 3.9429793 -0.49486086
-0.16890539 3.9462981 -0.49351653
0.095387258 -3.9356306 -0.48854199
0.17722711 -3.936697 -0.48582011
-0.34010753 -3.9268367 -0.48705155
0.60700196 -3.9129007 -0.4894647
-0.67919159 -3.9040267 -0.48861611
-0.76475668 -3.8946235 -0.48934135
0.69348586 -3.8983653 -0.4898344
0.7718755 -3.8885303 -0.48609006
-0.93684614 -3.8711939 -0.48645732
1.0317162 -3.8581018 -0.48891461
-1.1878572 -3.8214028 -0.48792505
1.1937778 -3.8210227 -0.48935655
1.3643622 -3.7910771 -0.48979643
1.4495076 -3.7655084 -0.48696098
1.5272722 -3.7476399 -0.48857775
-1.6781918 -3.7049274 -0.48693156
1.7762771 -3.6732874 -0.4884468
1.8565421 -3.6516366 -0.48761687
-1.8382881 -3.6482008 -0.48760244
2.0122924 -3.6013355 -0.48820445
-1.9988483 -3.5976191 -0.4859449
-2.083632 -3.5679996 -0.48813599
-2.1589415 -3.5436776 -0.48666471
-2.2332721 -3.5057573 -0.48843828
2.2400727 -3.5084898 -0.48640123
-2.3882759 -3.4482682 -0.48639533
2.3968027 -3.4417799 -0.48714456
2.4663181 -3.4101367 -0.4871392
-2.5349703 -3.3748231 -0.48603529
2.5414665 -3.3761783 -0.48731881
2.6916645 -3.3085816 -0.4891085
-2.7486856 -3.2684805 -0.48558015
2.7634411 -3.2640789 -0.48637715
-2.8232296 -3.2231431 -0.48867765
-2.8958185 -3.189913 -0.48751703
-2.9596477 -3.1462264 -0.48783934
2.9723125 -3.1446934 -0.48687649
-3.0270917 -3.1053615 -0.48549587
3.0393362 -3.1033432 -0.48684156
3.1098487 -3.0644815 -0.48812181
3.2377093 -2.9737682 -0.48619545
3.4961309 -2.7832804 -0.485964
-3.6564882 -2.6335444 -0.48598096
3.6663728 -2.6326945 -0.48967063
3.7317042 -2.5847251 -0.48820046
3.7846217 -2.5279691 -0.48612559
-3.8313596 -2.4823976 -0.48961508
-3.8812702 -2.4280961 -0.48595917
-3.9853511 -2.3106697 -0.48798126
3.9962847 -2.3137424 -0.48912483
-4.0310721 -2.2617452 -0.48823535
-4.0856729 -2.1982212 -0.48565695
-4.1344585 -2.1431975 -0.48892441
4.1359615 -2.1393635 -0.48952237
4.2326493 -2.0310678 -0.48888004
-4.2204871 -2.022644 -0.48757747
-4.3532553 -1.8444375 -0.48881158
4.4028163 -1.7905666 -0.48525429
-4.4252071 -1.7291822 -0.48950893
4.4767118 -1.6631473 -0.48585984
-4.4661713 -1.6598676 -0.48940158
-4.5026898 -1.601366 -0.48929137
4.5147791 -1.6043364 -0.48988634
4.579401 -1.4773427 -0.4896493
4.6136866 -1.4076885 -0.4888185
-4.6866994 -1.2176417 -0.48649448
4.6948195 -1.2146723 -0.48536876
-4.711875 -1.1442252 -0.48581731
4.7500877 -1.0828016 -0.48771119
-4.7968006 -0.87986451 -0.48968282
-4.8209548 -0.81769329 -0.48750189
-4.8388224 -0.74657458 -0.48927057
4.8501649 -0.7428233 -0.48619792
4.8621736 -0.67905748 -0.48754045
4.8804641 -0.6108982 -0.48733303
-4.8811846 -0.53973496 -0.48986045
-4.8853397 -0.47594717 -0.48584878
4.8964453 -0.47997531 -0.48956418
-4.9073439 -0.34075841 -0.48646432
4.9275861 -0.19792573 -0.4882617
-4.9220695 -0.13591439 -0.48961681
4.9336271 -0.13528885 -0.48811743
4.9387002 -0.06711667 -0.4881714
-4.921937 0.0030924748 -0.4854044
4.9340024 0.0048515191 -0.48966423
-4.9266 0.074409656 -0.48964119
4.939702 0.07827206 -0.48949036
4.927937 0.21168464 -0.48520538
-4.9119287 0.27776176 -0.48581511
4.9285464 0.27617833 -0.4891094
4.9126968 0.35048741 -0.48717296
-4.8968654 0.41512212 -0.48679534
-4.8736067 0.55387574 -0.48644593
4.8885841 0.5569042 -0.48935696
4.8763947 0.62590003 -0.48710823
-4.831255 0.75375986 -0.48972857
-4.8157291 0.82183051 -0.48554432
4.8114052 0.89118493 -0.48989785
-4.7767286 0.95905972 -0.48835596
4.7912507 0.95726836 -0.48891872
-4.7617879 1.0274152 -0.48537239
4.7407026 1.088082 -0.48554561
4.7191615 1.1634417 -0.48719373
-4.6862183 1.2247617 -0.48892114
4.6963406 1.2242583 -0.48934725
4.6341205 1.351485 -0.48928538
-4.5944834 1.4196283 -0.48717591
4.6068645 1.4228022 -0.48894209
4.5776262 1.4793409 -0.48848909
-4.4967771 1.6116502 -0.48786718
-4.4594812 1.676891 -0.48853299
4.4761786 1.6737707 -0.48902988
4.4419951 1.736228 -0.48837659
-4.3863559 1.7963336 -0.48970774
4.4031887 1.7910621 -0.48838297
-4.3477855 1.8573719 -0.48774567
-4.312284 1.9223132 -0.48802784
4.1916833 2.0973051 -0.48979732
-4.1294413 2.1538484 -0.48609591
4.0949626 2.2086761 -0.48782188
-4.0386591 2.2645249 -0.48674577
-3.9862139 2.328387 -0.48843589
-3.9383769 2.3822842 -0.48951769
3.8955064 2.4343543 -0.48826534
-3.8261132 2.4863863 -0.48957658
3.8338292 2.4912386 -0.48992687
-3.7706816 2.5455322 -0.48688442
-3.7146513 2.5906851 -0.48898259
-3.6021147 2.6989844 -0.48556951
-3.5383904 2.7427728 -0.48615569
3.548784 2.7424059 -0.48878622
-3.4848526 2.7913272 -0.48865786
3.4957783 2.7913661 -0.4894183
-3.4242046 2.8389802 -0.48760775
3.3034959 2.9417207 -0.48663253
3.2359118 2.978735 -0.48815235
-3.2313232 2.9847448 -0.4858993
-3.1626568 3.0242527 -0.48582822
-3.1033671 3.0716646 -0.48527607
-2.9616501 3.1513171 -0.48562753
2.9740951 3.1562684 -0.48845893
-2.8980644 3.1941895 -0.4896206
2.8986845 3.1986363 -0.48657951
-2.8279428 3.2406211 -0.48835436
2.7597637 3.2788873 -0.48715895
2.6927419 3.3100188 -0.48673898
2.6231804 3.3507411 -0.48683092
2.548305 3.3873217 -0.48553279
-2.4593287 3.4260414 -0.48836261
-2.3859649 3.4572401 -0.48801926
2.3992338 3.4514618 -0.48570168
-2.3148773 3.4869647 -0.48901647
2.3160155 3.4888446 -0.48839644
-2.230737 3.519141 -0.4873457
2.1707573 3.5477126 -0.48591021
-2.1582434 3.5546043 -0.48954099
-2.0793381 3.5815609 -0.48519495
-1.9231948 3.634119 -0.48736235
1.8515499 3.6650941 -0.48559853
1.7697818 3.6887612 -0.48992395
1.6887735 3.7082973 -0.48842973
-1.6839404 3.7168779 -0.48631847
1.612664 3.7397115 -0.48746753
1.3649049 3.7939098 -0.48835611
-1.2673436 3.8166826 -0.48636422
-1.1885726 3.8341546 -0.48565307
1.2027855 3.834892 -0.4896878
-1.0227615 3.8663943 -0.48676983
1.0326693 3.8658733 -0.48516619
0.85846448 3.88679 -0.48843652
0.94787323 3.8821163 -0.4895125
-0.84767413 3.8924842 -0.48736879
-0.76877725 3.903568 -0.48556516
0.78028917 3.9053025 -0.48893043
0.69284099 3.9120688 -0.48857412
0.61067462 3.9243917 -0.48594007
0.43121842 3.9392562 -0.4852244
0.26001027 3.9415212 -0.48555011
0.35046357 3.9444232 -0.48828748
-0.079078421 3.9515817 -0.48883688
0.00028027312 3.9533389 -0.48756811
0.09071552 3.9506073 -0.48915118
0.17677824 3.9518926 -0.48860857
-0.17094643 -3.9425933 -0.46744287
-0.08381214 -3.9449043 -0.46351215
0.0051554777 -3.9448898 -0.46360183
0.092578918 -3.9460351 -0.46453294
0.17337134 -3.9436769 -0.46865636
-0.34177294 -3.9388049 -0.4662098
-0.25596091 -3.9379253 -0.46892136
0.26564002 -3.9360905 -0.46582362
0.3505784 -3.9390864 -0.46183747
0.43604851 -3.933732 -0.46289665
-0.42046872 -3.926779 -0.46181476
0.51933074 -3.9244077 -0.46057212
-0.59726739 -3.9184725 -0.46039468
0.60806072 -3.914104 -0.46315858
-0.68674564 -3.9064283 -0.46314549
0.69389814 -3.9036996 -0.46740508
0.78100234 -3.9011326 -0.46215779
-0.76429003 -3.893044 -0.46467185
-0.85693479 -3.8808224 -0.46806711
0.86180198 -3.8845968 -0.46629408
-0.93280458 -3.8742363 -0.46652293
0.95225072 -3.8756397 -0.46217757
-1.0184209 -3.8629415 -0.46833235
1.0314813 -3.8608696 -0.46750769
-1.1058192 -3.8422074 -0.4603973
1.1162779 -3.8487642 -0.4682593
1.2035667 -3.8265781 -0.46621633
1.2844777 -3.8136785 -0.46422866
-1.2732078 -3.8081918 -0.46653238
-1.3600649 -3.7970717 -0.46215317
-1.4369055 -3.775373 -0.46108732
1.4453126 -3.7763278 -0.46232402
-1.5192553 -3.7558634 -0.46527821
1.5336609 -3.7489939 -0.46371868
-1.5986408 -3.7321153 -0.46700272
1.6172956 -3.7286553 -0.46273834
1.6956879 -3.7113879 -0.46660259
-1.6830665 -3.7040384 -0.461667
-1.7673261 -3.686537 -0.46818069
1.7794293 -3.6872878 -0.46407518
-1.8457837 -3.6610098 -0.46814951
1.8567483 -3.6572943 -0.46052462
-1.9279199 -3.6275637 -0.46605241
-2.0009835 -3.6021814 -0.46759802
2.0182617 -3.5991931 -0.4629719
-2.0797687 -3.5749781 -0.46087429
2.0897787 -3.5742838 -0.46051574
-2.1569839 -3.5419798 -0.46550211
2.1726475 -3.5418773 -0.46493608
-2.240782 -3.5159559 -0.46510607
2.2495604 -3.5196579 -0.4631393
-2.3103273 -3.4865837 -0.46915489
2.322994 -3.4802206 -0.46474347
-2.3892646 -3.4507427 -0.46165419
2.3943241 -3.4478233 -0.46788812
-2.462574 -3.4149394 -0.46612439
2.4759054 -3.4172277 -0.46678206
2.5528705 -3.382581 -0.46572378
-2.5337422 -3.3764875 -0.46577597
-2.6140349 -3.3425257 -0.46104112
-2.687556 -3.3118348 -0.46679676
2.6930611 -3.3041551 -0.46879247
-2.7601511 -3.2720468 -0.46528158
2.7644444 -3.2664819 -0.46879274
-2.8258867 -3.2316401 -0.46894825
2.8418076 -3.2347233 -0.46247783
2.9107642 -3.1869044 -0.4634411
-2.9695628 -3.1511629 -0.46264201
2.9744184 -3.1483331 -0.4629513
-3.0333481 -3.1107366 -0.46620992
3.0489616 -3.1118219 -0.46486369
-3.0997112 -3.0658422 -0.46611169
3.110975 -3.0687783 -0.46728
-3.1678238 -3.0168016 -0.46101031
3.1788969 -3.018234 -0.46305475
-3.2378433 -2.9764063 -0.46240139
3.246958 -2.9740674 -0.46917859
-3.2981055 -2.9302261 -0.46250007
3.3050923 -2.9337633 -0.46852583
-3.35974 -2.8809133 -0.4684746
3.3779988 -2.8837867 -0.46930081
-3.4218814 -2.8382678 -0.46858141
3.4310303 -2.8334205 -0.46045944
-3.4869819 -2.79267 -0.46459946
3.4930162 -2.785857 -0.46891478
-3.5468626 -2.7416646 -0.46735996
-3.6101985 -2.6908391 -0.46702641
3.615447 -2.6862478 -0.46271351
-3.6619482 -2.6336684 -0.4638972
3.6700284 -2.6368575 -0.46129954
-3.7222705 -2.5870292 -0.46039373
-3.7786796 -2.5381041 -0.46769762
3.7895792 -2.5351422 -0.46154669
-3.8283803 -2.4861913 -0.46482435
3.8406515 -2.4848874 -0.46394205
3.8944328 -2.430294 -0.46172354
-3.8842747 -2.4263518 -0.46359479
-3.9391966 -2.377516 -0.46121532
3.9476798 -2.3756006 -0.46611246
3.9989502 -2.3196726 -0.46759853
-4.0371599 -2.2632985 -0.46567884
4.0970526 -2.2078643 -0.46408027
-4.1380601 -2.1448636 -0.46529776
4.1443367 -2.1466653 -0.4659211
-4.183033 -2.0870841 -0.46578291
4.1972365 -2.0884609 -0.46920872
-4.2295637 -2.0274839 -0.4660928
-4.2755237 -1.9682499 -0.46887121
4.2835579 -1.9692535 -0.46502963
-4.315134 -1.9065931 -0.46442643
4.3237576 -1.9064763 -0.46362638
4.3702455 -1.8529927 -0.46159402
-4.3545179 -1.8471457 -0.46706462
-4.3960948 -1.7851377 -0.4668507
-4.4353848 -1.7258997 -0.4672175
4.4392729 -1.7227912 -0.46704975
-4.4726543 -1.6655048 -0.46474579
4.4780831 -1.6680448 -0.46351635
-4.5086956 -1.6014525 -0.46032012
4.5132799 -1.6023993 -0.46214643
-4.5454855 -1.543197 -0.4637779
4.5528717 -1.5365551 -0.4670777
-4.5696507 -1.4796685 -0.46064031
4.5792375 -1.4736507 -0.46195811
-4.6102552 -1.4130447 -0.46780777
4.6109214 -1.4122916 -0.46234804
4.6410255 -1.3509635 -0.46622413
-4.6322613 -1.345682 -0.46708819
-4.6682386 -1.2836009 -0.46213511
4.6740713 -1.2814655 -0.46733779
-4.6875839 -1.2110639 -0.46104687
4.6970968 -1.216216 -0.46556428
-4.7201848 -1.154722 -0.46752444
4.7307239 -1.1530149 -0.4601261
-4.7452941 -1.0814466 -0.46847209
4.7549348 -1.086271 -0.46102068
-4.761476 -1.016956 -0.46913984
-4.7867708 -0.95231557 -0.46900499
4.7975893 -0.94894409 -0.46488795
-4.8116941 -0.88186371 -0.4668819
4.814867 -0.88488519 -0.46776086
-4.8229933 -0.81424075 -0.46812168
4.8357482 -0.81717324 -0.46143308
-4.8404856 -0.74455869 -0.46028793
4.8502769 -0.74911648 -0.46790075
-4.8604989 -0.68099439 -0.46748242
4.8729391 -0.68091005 -0.46762615
-4.8747897 -0.60912186 -0.46209699
4.8802443 -0.60821909 -0.4628526
-4.8809614 -0.54336107 -0.46730685
4.894949 -0.54966468 -0.46821883
-4.8987927 -0.48052755 -0.46262062
4.9099388 -0.47323352 -0.46614504
-4.9094343 -0.41229835 -0.46867332
4.9188728 -0.40692449 -0.46344033
-4.9175329 -0.33446598 -0.46615514
4.9254165 -0.338236 -0.46839991
4.9320784 -0.27365381 -0.4615708
-4.919817 -0.26771343 -0.4655889
-4.9219785 -0.2055268 -0.46450055
4.9317555 -0.20183262 -0.46772993
-4.9275465 -0.13571264 -0.46665955
4.937058 -0.13772279 -0.46349508
-4.9334564 -0.061755627 -0.46899503
4.9471846 -0.06622576 -0.46877158
-4.9323068 0.0046142535 -0.46499717
4.9393392 0.0022494441 -0.46363944
4.9408979 0.0007862646 -0.46462944
-4.9352555 0.074160196 -0.46923849
4.9393449 0.078008346 -0.46381614
-4.9299035 0.14319292 -0.46587044
4.9411011 0.14523198 -0.46027541
-4.9313936 0.21281953 -0.46272263
4.935041 0.2124915 -0.46524322
-4.9256096 0.28307244 -0.46841875
4.9316959 0.28035796 -0.46053693
4.9254704 0.34755054 -0.46431348
4.9124179 0.41858965 -0.46012926
-4.9047513 0.42187798 -0.46378219
-4.8925576 0.48363447 -0.46240294
4.9034986 0.48568788 -0.46756491
-4.8854089 0.55217439 -0.46749535
4.897717 0.55408859 -0.46330187
-4.875062 0.62403607 -0.46564984
4.8818526 0.62320578 -0.46819764
-4.8540111 0.69028294 -0.46120495
4.8722944 0.6936689 -0.46741137
-4.8378124 0.76047134 -0.4656024
4.8512611 0.76312226 -0.46835318
-4.8212638 0.82825971 -0.46239907
4.8395643 0.82635844 -0.4610005
-4.803299 0.89442253 -0.46405336
4.8199372 0.89704412 -0.46527547
4.7938766 0.9593755 -0.46050814
-4.7696462 1.0268469 -0.46048898
4.7710624 1.0319527 -0.46728843
4.7530189 1.0894274 -0.46166494
-4.7403822 1.0975959 -0.46395227
4.7277131 1.157408 -0.46745282
-4.712832 1.1601814 -0.46173972
-4.6904035 1.2290046 -0.46520156
4.7035336 1.2305058 -0.46320283
-4.6676278 1.2917945 -0.46691146
4.6721864 1.2901065 -0.46803114
-4.633008 1.3556349 -0.46612823
4.6445212 1.3539826 -0.46040332
4.6162281 1.4221213 -0.46112034
-4.5776873 1.4816329 -0.46866834
4.5855894 1.4853158 -0.46616974
-4.5412107 1.549455 -0.46861315
4.5509086 1.5470874 -0.46785176
-4.5047603 1.607579 -0.46878052
4.5205674 1.6124489 -0.46425006
-4.4700527 1.6731241 -0.46177739
4.4836197 1.6760874 -0.46482748
-4.4351134 1.7396837 -0.46553388
4.4485288 1.734207 -0.46437535
-4.3932457 1.7970667 -0.46237421
4.4077086 1.8009733 -0.46205574
-4.3577857 1.8564764 -0.46581316
4.3697605 1.8589318 -0.46239996
-4.3181009 1.9245797 -0.46473083
4.3247347 1.9223264 -0.4685331
-4.2692151 1.9790434 -0.46515191
4.2835641 1.9762436 -0.46578768
-4.2279286 2.0436618 -0.46147373
4.1918674 2.0969889 -0.46415234
-4.1821542 2.1035254 -0.46067965
-4.1366158 2.151902 -0.46279624
4.1486902 2.1601915 -0.4607473
-4.0869536 2.2122307 -0.46138525
4.1025705 2.2167668 -0.46521455
-4.039659 2.2698157 -0.46826795
4.0488048 2.2714643 -0.4687877
-3.990958 2.3290346 -0.4671362
4.0032291 2.3274863 -0.46647689
-3.9422629 2.381062 -0.46271288
3.9468887 2.3804393 -0.46910805
3.8916664 2.4345191 -0.46494269
-3.8890522 2.4412441 -0.46496481
-3.8323393 2.4867113 -0.46786162
3.8449144 2.493958 -0.4679794
-3.7782731 2.5458174 -0.46574646
3.7908607 2.5439117 -0.46711248
3.7283998 2.5919924 -0.4604499
-3.7181606 2.6011333 -0.46684492
-3.6602001 2.6456869 -0.46004266
3.6711013 2.6474662 -0.46704155
3.6180227 2.6952684 -0.4685846
-3.6045775 2.7029963 -0.46853131
-3.5431769 2.751307 -0.46139339
3.5572488 2.7537014 -0.46105111
3.5009255 2.7963517 -0.46564594
-3.4850893 2.8024728 -0.46777949
-3.4271281 2.8475113 -0.46795312
3.4399655 2.8426268 -0.46035415
-3.3634875 2.89165 -0.46672964
3.3702712 2.8929644 -0.46753737
-3.2959664 2.9388788 -0.46004459
3.3069196 2.9396696 -0.46534508
-3.2358096 2.9895563 -0.4623605
3.246727 2.9823833 -0.46767676
-3.1672535 3.0275512 -0.46854571
3.1825111 3.0349596 -0.4632602
-3.1007724 3.0735102 -0.46343955
3.1081948 3.0801291 -0.46319538
3.0495944 3.114177 -0.46929932
-3.0368805 3.1217248 -0.46015182
-2.9703224 3.1580739 -0.46669641
2.9734764 3.1624284 -0.46843839
2.9049101 3.1982737 -0.46916103
-2.8947284 3.2026126 -0.46137321
-2.8292823 3.2364411 -0.46697918
2.8329928 3.2372348 -0.46641397
2.7656178 3.2757254 -0.46572134
-2.7582166 3.2840996 -0.46578851
-2.6803131 3.3166955 -0.46042326
2.6926937 3.3160448 -0.46215516
-2.6119637 3.3527446 -0.46327865
2.621767 3.3555505 -0.46846783
2.5522354 3.3883963 -0.46775594
-2.5366988 3.392642 -0.46490604
-2.4613204 3.4263465 -0.46231994
2.4695969 3.4215343 -0.46924928
-2.3894947 3.4621191 -0.46927685
-2.3128316 3.4948528 -0.46574152
2.3209856 3.4979081 -0.46849099
-2.2355292 3.5248241 -0.46748212
2.2445371 3.5211949 -0.46127486
-2.1586578 3.5565197 -0.46561146
2.1682668 3.5541282 -0.4692277
-2.0856788 3.5894079 -0.46458045
2.0906141 3.5842321 -0.46826071
2.0150731 3.6169026 -0.46785823
-1.928604 3.6395431 -0.46533367
1.9296132 3.6374226 -0.46519384
-1.8438423 3.6647024 -0.46496019
1.8571312 3.6686013 -0.46007222
-1.7684878 3.69576 -0.46107778
1.7777731 3.6926219 -0.46813273
-1.6808649 3.7194507 -0.4604176
1.6985877 3.7171462 -0.46805146
1.6173944 3.7365823 -0.46763757
-1.6076316 3.7419755 -0.46611178
-1.5241944 3.7591307 -0.46022078
1.5355288 3.760989 -0.46803758
-1.43479 3.7862535 -0.46015275
1.4441397 3.7842546 -0.46698973
-1.3544225 3.8066771 -0.46903986
1.3695264 3.8072348 -0.46377528
1.2865458 3.8192003 -0.46014202
-1.2739881 3.8208909 -0.46448794
-1.1929377 3.8393965 -0.46336782
1.2041426 3.8428929 -0.46243247
-1.1096795 3.8591225 -0.4648408
1.1117783 3.8589995 -0.46169755
-1.0225461 3.8705378 -0.46443501
1.0317397 3.8710818 -0.46617118
-0.94184226 3.8875067 -0.46446401
0.94651061 3.8828223 -0.46189517
-0.8570593 3.8964267 -0.46619356
0.86293346 3.8949292 -0.4672429
-0.76781839 3.9062221 -0.46128944
0.77917629 3.905905 -0.46617121
0.69559777 3.9155629 -0.46257216
-0.68368679 3.9222369 -0.46100348
0.61140978 3.9248419 -0.46644172
-0.59268403 3.9301922 -0.46650636
-0.51199502 3.9345591 -0.46702912
0.43782073 3.9359465 -0.46384943
0.51808631 3.9309549 -0.46691492
-0.42165467 3.9445996 -0.46668133
-0.33811772 3.9426026 -0.46690807
-0.16557118 3.9483759 -0.4622888
0.26189721 3.9458618 -0.46485236
-0.25494903 3.9549332 -0.46875203
-0.082541779 3.9518812 -0.46554688
0.09036459 3.9598658 -0.46353513
0.17339398 3.9538498 -0.46819061
0.35105664 3.9507818 -0.46435592
-0.51341254 -3.9251249 -0.45975801
-1.1913337 -3.8277943 -0.45952106
1.3639402 -3.7921286 -0.45952532
1.9381757 -3.6355371 -0.45979309
2.6215901 -3.3497756 -0.45994291
-2.8980007 -3.1866221 -0.45988253
3.5602534 -2.7386546 -0.45959213
3.7315798 -2.5821023 -0.45976558
-3.9925513 -2.3161759 -0.45968243
4.0478454 -2.2625263 -0.45985034
-4.0849619 -2.1995671 -0.45983455
4.2402749 -2.0251784 -0.45938331
4.4076238 -1.7881664 -0.45957211
4.7702217 -1.0174907 -0.45940414
-4.9176607 0.35376516 -0.45946592
-4.7837009 0.95682073 -0.45982599
-4.6006527 1.4226199 -0.45979464
4.238719 2.041451 -0.45948982
2.4006233 3.4558208 -0.45943213
-2.0031834 3.6138279 -0.45933655
0.0015849719 3.9558494 -0.45933858
-0.16610642 -3.9524643 -0.44194078
0.17306617 -3.953454 -0.44335848
-0.42333505 -3.9326508 -0.44299793
-0.34201658 -3.9380376 -0.44333893
0.52468461 -3.9332294 -0.44075814
-0.51156354 -3.9278057 -0.44253144
-0.67969203 -3.912641 -0.44047162
-0.59762102 -3.9173093 -0.44041508
-0.76607978 -3.9010198 -0.44187701
-1.355728 -3.794929 -0.44110882
-1.4414581 -3.7831454 -0.44312477
1.4551759 -3.7808757 -0.44028389
-1.607253 -3.7329092 -0.44239891
1.6184554 -3.7337735 -0.44068688
-1.6813774 -3.7081773 -0.44146493
1.6935951 -3.7075872 -0.44069046
1.7723869 -3.6914589 -0.44175905
1.8623079 -3.6590583 -0.44234136
2.0160668 -3.6114364 -0.44016355
-2.0112195 -3.6052885 -0.44055286
-2.2363689 -3.5210779 -0.44045267
2.397527 -3.4571028 -0.44115585
-2.4639468 -3.4221857 -0.44065985
2.4753857 -3.4208248 -0.44125935
2.6277471 -3.3496253 -0.44047466
2.7675416 -3.2700284 -0.4417617
3.1830151 -3.0217683 -0.44125196
-3.2342696 -2.9829664 -0.44114947
3.3094668 -2.9383376 -0.44048932
-3.3630404 -2.8864777 -0.44122052
-3.4343283 -2.8455048 -0.44250584
-3.5529313 -2.7434659 -0.44070107
3.5581315 -2.744853 -0.44153723
-3.6681354 -2.6377227 -0.4415091
3.6838336 -2.6373932 -0.44228876
-3.7226226 -2.5896673 -0.4422209
-3.7872312 -2.535464 -0.44154242
-3.8412304 -2.4847395 -0.44010845
3.8450983 -2.486867 -0.44329357
3.9064598 -2.4322679 -0.44170338
3.9519386 -2.3739748 -0.44177267
4.0589194 -2.265445 -0.44178164
-4.1900082 -2.0956826 -0.44287035
4.373395 -1.8498263 -0.44150779
-4.4406657 -1.7340244 -0.44247007
4.4861674 -1.6631653 -0.44158524
4.552927 -1.5435234 -0.44300896
-4.5836072 -1.4787084 -0.44217774
4.5939994 -1.4767034 -0.44010979
-4.6724968 -1.2865936 -0.44058895
4.6778784 -1.2803031 -0.44083843
4.7038569 -1.2176772 -0.44340578
4.7317305 -1.152954 -0.44335049
-4.7437325 -1.0850705 -0.44215426
4.7550068 -1.0862228 -0.44275838
4.8453975 -0.81788135 -0.44197914
4.8559227 -0.75344688 -0.44254452
-4.8449368 -0.74524254 -0.44279358
-4.8618717 -0.68405551 -0.44146925
4.8707933 -0.67917174 -0.44189394
-4.9070096 -0.47471926 -0.44315758
4.9263616 -0.40848979 -0.44151196
-4.9245753 -0.34455773 -0.44292334
4.9353037 -0.34008849 -0.44289121
-4.9300146 -0.20530015 -0.44177088
4.9407058 -0.20286018 -0.44259045
-4.9391913 0.0063301185 -0.44222125
4.9486904 0.0067887167 -0.44194677
-4.9375186 0.20903237 -0.44102499
4.9430671 0.21002492 -0.44291881
-4.92665 0.28373915 -0.4416641
4.9298854 0.35324883 -0.44168627
-4.9129272 0.4163731 -0.44179684
4.92349 0.41644502 -0.44085553
-4.9017076 0.48518604 -0.44166055
-4.8903971 0.55394238 -0.44142482
4.8893061 0.62459815 -0.44055164
-4.864419 0.69127375 -0.4426142
-4.8344445 0.82767844 -0.44328943
4.8264465 0.89328003 -0.4408887
-4.7734361 1.0300324 -0.44047442
4.779418 1.0333405 -0.44055939
4.736156 1.1586251 -0.4422954
4.6765976 1.2967776 -0.44028616
4.6506643 1.3542041 -0.44094169
4.6201043 1.4227002 -0.44055542
4.5922446 1.490533 -0.44196102
-4.5096769 1.6105223 -0.44100118
4.5269003 1.6143695 -0.44278899
4.4855232 1.6800363 -0.44335306
-4.4445081 1.74404 -0.44007266
-4.3987556 1.8046116 -0.44333893
4.3697996 1.8595309 -0.44273216
-4.3625917 1.8630025 -0.44307134
4.2866693 1.985046 -0.44277227
-4.2340732 2.043155 -0.4426049
4.1482244 2.159169 -0.44255847
-4.046001 2.2743876 -0.44181421
-3.9464631 2.3905513 -0.44067141
3.8522253 2.4908454 -0.44108087
3.6257653 2.7003357 -0.4412986
-3.4946828 2.8028092 -0.44133991
3.1844959 3.0392818 -0.44200581
-3.1025856 3.080626 -0.44187552
3.1172614 3.0825384 -0.44009519
-3.0418944 3.1219594 -0.44246176
