# .PCD v0.7 - Point Cloud Data file format
VERSION 0.7
FIELDS x y z
SIZE 4 4 4
TYPE F F F
COUNT 1 1 1
WIDTH 1575
HEIGHT 1
VIEWPOINT 0 0 0 1 0 0 0
POINTS 1575
DATA ascii
38.970585 -1.3651594 63.470562
38.970585 -1.3194934 63.471943
38.970585 -1.2738266 63.47332
38.970585 -1.228159 63.474701
38.970585 -1.1824903 63.476082
38.970585 -1.136821 63.477463
38.970585 -1.0911509 63.47884
38.970585 -1.0454799 63.480221
38.970585 -0.99980801 63.481602
38.970585 -0.95413536 63.482983
38.970585 -0.90846187 63.484364
38.970585 -0.86278749 63.485741
38.970585 -0.81711233 63.487122
38.970585 -0.77143627 63.488503
38.970585 -0.72575945 63.489883
38.970585 -0.68008173 63.491264
38.970585 -0.63440323 63.492645
38.970585 -0.58872384 63.494022
38.970585 -0.54304367 63.495403
38.970585 -0.49736261 63.496784
38.970585 -0.45168075 63.498165
38.970585 -0.40599805 63.499546
38.970585 -0.36031452 63.500927
38.970585 -0.31463012 63.502308
38.970585 -0.26894492 63.503689
38.970585 -0.22325887 63.505066
38.970585 -0.17757198 63.506447
38.970585 -0.13188426 63.507828
38.970585 -0.086195707 63.509209
38.970585 -0.040506318 63.51059
38.970585 0.005183911 63.511971
38.970585 0.050874975 63.513351
38.970585 0.096566871 63.514732
38.970585 0.14225961 63.516113
38.970585 0.18795317 63.517494
38.970585 0.23364758 63.518875
38.970585 0.27934283 63.520256
38.970585 0.32503891 63.521637
38.970585 0.37073582 63.523018
38.970585 0.41643357 63.524399
38.970585 0.46213216 63.52578
38.970585 0.50783157 63.527161
38.970585 0.55353183 63.528542
38.970585 0.59923297 63.529922
38.970585 0.64493489 63.531303
38.970585 0.69063765 63.532684
38.970585 0.73634124 63.534065
38.970585 0.78204572 63.535446
38.970585 0.82775098 63.536827
38.970585 0.87345707 63.538208
38.970585 0.91916406 63.539589
38.970585 0.96487182 63.54097
38.970585 1.0105804 63.542351
38.970585 1.0562899 63.543732
38.970585 1.1020002 63.545113
38.970585 1.1477113 63.546497
38.970585 1.1934233 63.547878
38.970585 1.2391361 63.549259
38.970585 1.2848498 63.55064
38.970585 1.3305643 63.552021
38.970585 1.3762796 63.553402
38.970585 1.4219956 63.554783
38.970585 1.4677126 63.556164
38.970585 1.5134305 63.557549
38.970585 1.5591491 63.558929
38.970585 1.6048687 63.56031
38.970585 1.650589 63.561691
38.970585 1.6963102 63.563072
38.970585 1.7420322 63.564453
38.970585 1.787755 63.565838
38.970585 1.8334787 63.567219
38.970585 1.8792032 63.5686
38.970585 1.9249285 63.569981
38.970585 1.9706547 63.571365
38.970585 2.0163817 63.572746
38.970585 2.0621097 63.574127
38.970585 2.1078384 63.575508
38.970585 2.153568 63.576889
38.970585 2.1992984 63.578274
38.970585 2.2450294 63.579655
38.970585 2.2907615 63.581036
38.970585 2.3364944 63.58242
38.970585 2.3822281 63.583801
38.970585 2.4279628 63.585182
38.970585 2.4736981 63.586563
38.970585 2.5194345 63.587948
38.970585 2.5651715 63.589329
38.970585 2.6109095 63.59071
38.970585 2.6566482 63.592094
38.970585 2.7023878 63.593475
38.970585 2.7481279 63.594852
38.970585 2.7938693 63.596233
38.970585 2.8396113 63.597618
38.970585 2.8853543 63.598999
38.970585 2.931098 63.60038
38.970585 2.9768426 63.601765
38.970585 3.022588 63.603146
38.970585 3.0683343 63.604527
38.970585 3.1140816 63.605911
38.970585 3.1598294 63.607292
38.970585 3.2055783 63.608677
38.970585 3.251328 63.610058
38.970585 3.2970784 63.611439
38.970585 3.3428297 63.612823
38.970585 3.3885818 63.614204
38.970585 3.4343348 63.615589
38.970585 3.4800887 63.61697
38.970585 3.5258434 63.618355
38.970585 3.5715988 63.619736
38.970585 3.6173551 63.62112
38.970585 3.6631124 63.622501
38.970585 3.7088704 63.623882
38.970585 3.7546291 63.625267
38.970585 3.8003888 63.626648
38.970585 3.8461494 63.628033
38.970585 3.8919108 63.629414
38.970585 3.9376729 63.630798
38.970585 3.9834359 63.632179
38.970585 4.0292001 63.633564
38.970585 4.0749645 63.634945
38.970585 4.1207299 63.63633
38.970585 4.1664963 63.637714
38.970585 4.2122636 63.639095
38.970585 4.2580318 63.64048
38.970585 4.3038006 63.641861
38.970585 4.3495703 63.643246
38.970585 4.3953409 63.644627
38.970585 4.4411125 63.646011
38.970585 4.4868846 63.647392
38.970585 4.5326576 63.648777
38.970585 4.5784316 63.650162
38.970585 4.6242065 63.651543
38.970585 4.669982 63.652927
38.970585 4.7157583 63.654308
38.970585 4.7615356 63.655693
38.970585 4.8073139 63.657078
38.970585 4.8530927 63.658459
38.970585 4.8988729 63.659843
38.970585 4.9446535 63.661228
38.970585 4.9904346 63.662609
38.970585 5.0362172 63.663994
38.970585 5.0820003 63.665379
38.970585 5.1277843 63.666759
38.970585 5.1735692 63.668144
38.970585 5.2193546 63.669529
38.970585 5.2651415 63.67091
38.970585 5.3109288 63.672295
38.970585 5.3567166 63.673679
38.970585 5.4025059 63.675064
38.970585 5.4482956 63.676445
38.970585 5.4940863 63.67783
38.970585 5.5398779 63.679214
38.970585 5.5856705 63.680595
38.970585 5.6314635 63.68198
38.970585 5.6772575 63.683365
38.970585 5.7230525 63.68475
38.970585 5.7688484 63.686134
38.970585 5.8146448 63.687515
38.970585 5.8604422 63.6889
38.970585 5.9062405 63.690285
38.970585 5.9520397 63.691669
38.970585 5.9978395 63.69305
38.970585 6.0436401 63.694435
38.970585 6.0894418 63.69582
38.970585 6.1352444 63.697205
38.970585 6.1810474 63.698589
38.970585 6.2268515 63.699974
38.970585 6.2726564 63.701355
38.970585 6.3184624 63.70274
38.970585 6.3642693 63.704124
38.970585 6.4100766 63.705509
38.970585 6.4558849 63.706894
38.970585 6.5016942 63.708279
38.970585 6.5475039 63.709663
38.970585 6.5933146 63.711048
38.970585 6.6391263 63.712429
38.970585 6.6849389 63.713814
38.970585 6.7307525 63.715199
38.970585 6.7765665 63.716583
38.970585 6.8223815 63.717968
38.970585 6.8681974 63.719353
38.970585 6.9140143 63.720737
38.970585 6.9598317 63.722122
38.970585 7.00565 63.723507
38.970585 7.0514693 63.724892
38.970585 7.0972896 63.726276
38.970585 7.1431103 63.727661
38.970585 7.1889319 63.729046
38.970585 7.2347546 63.730431
38.970585 7.2805781 63.731815
38.970585 7.3264022 63.7332
38.970585 7.3722277 63.734585
38.970585 7.4180532 63.73597
38.970585 7.4638801 63.737354
38.970585 7.5097079 63.738739
38.970585 7.5555363 63.740124
38.970585 7.6013656 63.741508
38.970585 7.6471958 63.742893
38.970585 7.6930265 63.744278
38.970585 7.7388587 63.745663
38.970585 7.7846913 63.747047
38.970585 7.8305244 63.748428
38.970585 7.8763585 63.749813
38.970585 7.922194 63.751198
38.970585 7.96803 63.752583
38.970585 8.0138664 63.753967
38.970585 8.0597048 63.755352
38.970585 8.1055431 63.756737
38.970585 8.1513824 63.758121
38.970585 8.1972227 63.75951
38.970585 8.2430639 63.760895
38.970585 8.2889051 63.76228
38.970585 8.3347483 63.763664
38.970585 8.3805923 63.765049
38.970585 8.4264364 63.766434
38.970585 8.4722815 63.767818
38.970585 8.5181274 63.769207
38.970585 8.5639744 63.770592
38.970585 8.6098223 63.771976
38.970585 8.6556711 63.773361
38.970585 8.7015209 63.774746
38.970585 8.7473707 63.776134
38.970585 8.7932215 63.777519
38.970585 8.8390741 63.778904
38.970585 8.8849268 63.780289
38.970585 8.9307804 63.781673
38.970585 8.976635 63.783062
38.970585 9.0224905 63.784447
38.970585 9.068346 63.785831
38.970585 9.1142035 63.787216
38.970585 9.1600609 63.788605
38.970585 9.2059202 63.789989
38.970585 9.2517796 63.791374
38.970585 9.2976398 63.792759
38.970585 9.3435011 63.794147
38.970585 9.3893633 63.795532
38.970585 9.4352264 63.796917
38.970585 9.4810896 63.798306
38.970585 9.5269547 63.79969
38.970585 9.5728197 63.801075
38.970585 9.6186867 63.802464
38.970585 9.6645536 63.803848
38.970585 9.7104216 63.805233
38.970585 9.7562904 63.806622
38.970585 9.8021593 63.808006
38.970585 9.8480301 63.809391
38.970585 9.8939018 63.81078
38.970585 9.9397736 63.812164
38.970585 9.9856462 63.813553
38.970585 10.031521 63.814938
38.970585 10.077395 63.816322
38.970585 10.123271 63.817711
38.970585 10.169147 63.819096
38.970585 10.215024 63.820484
38.970585 10.260902 63.821869
38.970585 10.306781 63.823254
38.970585 10.352661 63.824642
38.970585 10.398541 63.826027
38.970585 10.444423 63.827415
39.303101 -9.9355536 63.21159
39.303101 -9.8900442 63.212967
39.303101 -9.8445339 63.21434
39.303101 -9.7990236 63.215717
39.303101 -9.7535114 63.217091
39.303101 -9.7079992 63.218468
39.303101 -9.6624851 63.219841
39.303101 -9.616971 63.221218
39.303101 -9.571456 63.222591
39.303101 -9.5259399 63.223969
39.303101 -9.480423 63.225346
39.303101 -9.4349051 63.226719
39.303101 -9.3893862 63.228096
39.303101 -9.3438673 63.229469
39.303101 -9.2983475 63.230846
39.303101 -9.2528257 63.23222
39.303101 -9.207304 63.233597
39.303101 -9.1617813 63.234974
39.303101 -9.1162577 63.236347
39.303101 -9.070734 63.237724
39.303101 -9.0252085 63.239101
39.303101 -8.9796829 63.240475
39.303101 -8.9341555 63.241852
39.303101 -8.888628 63.243225
39.303101 -8.8430996 63.244602
39.303101 -8.7975702 63.245979
39.303101 -8.7520399 63.247353
39.303101 -8.7065086 63.24873
39.303101 -8.6609774 63.250107
39.303101 -8.6154442 63.25148
39.303101 -8.569911 63.252857
39.303101 -8.5243769 63.254234
39.303101 -8.4788418 63.255611
39.303101 -8.4333057 63.256985
39.303101 -8.3877687 63.258362
39.303101 -8.3422308 63.259739
39.303101 -8.2966928 63.261112
39.303101 -8.251153 63.262489
39.303101 -8.2056131 63.263866
39.303101 -8.1600723 63.265244
39.303101 -8.1145306 63.266617
39.303101 -8.0689878 63.267994
39.303101 -8.0234442 63.269371
39.303101 -7.9779 63.270748
39.303101 -7.9323549 63.272125
39.303101 -7.8868089 63.273499
39.303101 -7.8412623 63.274876
39.303101 -7.7957144 63.276253
39.303101 -7.7501659 63.27763
39.303101 -7.704617 63.279007
39.303101 -7.6590667 63.28038
39.303101 -7.6135159 63.281757
39.303101 -7.5679641 63.283134
39.303101 -7.5224113 63.284512
39.303101 -7.4768577 63.285881
39.303101 -7.4313035 63.287258
39.303101 -7.3857484 63.288635
39.303101 -7.3401923 63.290012
39.303101 -7.2946358 63.291389
39.303101 -7.2490778 63.292767
39.303101 -7.2035193 63.294144
39.303101 -7.1579604 63.295521
39.303101 -7.1124001 63.296898
39.303101 -7.0668392 63.298271
39.303101 -7.0212774 63.299648
39.303101 -6.9757147 63.301025
39.303101 -6.9301515 63.302402
39.303101 -6.8845873 63.30378
39.303101 -6.8390222 63.305157
39.303101 -6.7934561 63.306534
39.303101 -6.7478895 63.307911
39.303101 -6.7023215 63.309288
39.303101 -6.6567531 63.310665
39.303101 -6.6111841 63.312042
39.303101 -6.5656137 63.313419
39.303101 -6.5200429 63.314796
39.303101 -6.4744711 63.316174
39.303101 -6.4288988 63.317551
39.303101 -6.3833251 63.318928
39.303101 -6.3377509 63.320305
39.303101 -6.2921758 63.321682
39.303101 -6.2465997 63.323059
39.303101 -6.2010231 63.324436
39.303101 -6.1554456 63.325813
39.303101 -6.1098671 63.32719
39.303101 -6.0642877 63.328568
39.303101 -6.0187078 63.329945
39.303101 -5.9731269 63.331322
39.303101 -5.9275451 63.332699
39.303101 -5.8819623 63.334076
39.303101 -5.8363791 63.335453
39.303101 -5.7907948 63.336834
39.303101 -5.7452097 63.338211
39.303101 -5.6996241 63.339588
39.303101 -5.654037 63.340965
39.303101 -5.6084495 63.342342
39.303101 -5.562861 63.343719
39.303101 -5.517272 63.345097
39.303101 -5.4716816 63.346474
39.303101 -5.4260907 63.347855
39.303101 -5.3804989 63.349232
39.303101 -5.3349066 63.350609
39.303101 -5.2893128 63.351986
39.303101 -5.2437186 63.353363
39.303101 -5.1981239 63.35474
39.303101 -5.1525278 63.356121
39.303101 -5.1069312 63.357498
39.303101 -5.0613337 63.358875
39.303101 -5.0157351 63.360252
39.303101 -4.9701357 63.361629
39.303101 -4.9245358 63.36301
39.303101 -4.8789349 63.364388
39.303101 -4.833333 63.365765
39.303101 -4.7877307 63.367142
39.303101 -4.7421269 63.368523
39.303101 -4.6965227 63.3699
39.303101 -4.6509175 63.371277
39.303101 -4.6053119 63.372654
39.303101 -4.5597053 63.374035
39.303101 -4.5140972 63.375412
39.303101 -4.4684892 63.376789
39.303101 -4.4228797 63.37817
39.303101 -4.3772697 63.379547
39.303101 -4.3316588 63.380924
39.303101 -4.286047 63.382301
39.303101 -4.2404346 63.383682
39.303101 -4.1948209 63.385059
39.303101 -4.1492066 63.386436
39.303101 -4.1035914 63.387817
39.303101 -4.0579758 63.389194
39.303101 -4.0123591 63.390572
39.303101 -3.9667413 63.391953
39.303101 -3.921123 63.39333
39.303101 -3.8755038 63.394711
39.303101 -3.8298836 63.396088
39.303101 -3.7842627 63.397465
39.303101 -3.7386408 63.398846
39.303101 -3.6930182 63.400223
39.303101 -3.6473949 63.401604
39.303101 -3.6017706 63.402981
39.303101 -3.5561454 63.404358
39.303101 -3.5105195 63.405739
39.303101 -3.4648929 63.407116
39.303101 -3.4192653 63.408497
39.303101 -3.3736367 63.409874
39.303101 -3.3280075 63.411255
39.303101 -3.2823775 63.412632
39.303101 -3.2367465 63.414009
39.303101 -3.1911147 63.41539
39.303101 -3.1454821 63.416767
39.303101 -3.0998487 63.418148
39.303101 -3.0542145 63.419525
39.303101 -3.0085793 63.420906
39.303101 -2.9629433 63.422283
39.303101 -2.9173064 63.423664
39.303101 -2.8716688 63.425041
39.303101 -2.8260305 63.426422
39.303101 -2.7803912 63.427799
39.303101 -2.734751 63.42918
39.303101 -2.68911 63.430561
39.303101 -2.6434684 63.431938
39.303101 -2.5978258 63.433319
39.303101 -2.5521822 63.434696
39.303101 -2.5065379 63.436077
39.303101 -2.4608929 63.437454
39.303101 -2.4152467 63.438831
39.303101 -2.3696001 63.440208
39.303101 -2.3239524 63.441589
39.303101 -2.2783039 63.442966
39.303101 -2.2326546 63.444347
39.303101 -2.1870046 63.445728
39.303101 -2.1413536 63.447105
39.303101 -2.0957017 63.448486
39.303101 -2.0500491 63.449867
39.303101 -2.0043957 63.451244
39.303101 -1.9587413 63.452625
39.303101 -1.9130862 63.454002
39.303101 -1.8674302 63.455383
39.303101 -1.8217734 63.456764
39.303101 -1.7761158 63.458145
39.303101 -1.7304573 63.459522
39.303101 -1.684798 63.460903
39.303101 -1.6391379 63.462284
39.303101 -1.5934769 63.463661
39.303101 -1.5478151 63.465042
39.303101 -1.5021523 63.466423
39.303101 -1.4564888 63.4678
39.303101 -1.4108245 63.469181
39.303101 -1.3651594 63.470562
39.303101 -1.3194934 63.471943
39.303101 -1.2738266 63.47332
39.303101 -1.228159 63.474701
39.303101 -1.1824903 63.476082
39.303101 -1.136821 63.477463
39.303101 -1.0911509 63.47884
39.303101 -1.0454799 63.480221
39.303101 -0.99980801 63.481602
39.303101 -0.95413536 63.482983
39.303101 -0.90846187 63.484364
39.303101 -0.86278749 63.485741
39.303101 -0.81711233 63.487122
39.303101 -0.77143627 63.488503
39.303101 -0.72575945 63.489883
39.303101 -0.68008173 63.491264
39.303101 -0.63440323 63.492645
39.303101 -0.58872384 63.494022
39.303101 -0.54304367 63.495403
39.303101 -0.49736261 63.496784
39.303101 -0.45168075 63.498165
39.303101 -0.40599805 63.499546
39.303101 -0.36031452 63.500927
39.303101 -0.31463012 63.502308
39.303101 -0.26894492 63.503689
39.303101 -0.22325887 63.505066
39.303101 -0.17757198 63.506447
39.303101 -0.13188426 63.507828
39.303101 -0.086195707 63.509209
39.303101 -0.040506318 63.51059
39.303101 0.005183911 63.511971
39.303101 0.050874975 63.513351
39.303101 0.096566871 63.514732
39.303101 0.14225961 63.516113
39.303101 0.18795317 63.517494
39.303101 0.23364758 63.518875
39.303101 0.27934283 63.520256
39.303101 0.32503891 63.521637
39.303101 0.37073582 63.523018
39.303101 0.41643357 63.524399
39.303101 0.46213216 63.52578
39.303101 0.50783157 63.527161
39.303101 0.55353183 63.528542
39.303101 0.59923297 63.529922
39.303101 0.64493489 63.531303
39.303101 0.69063765 63.532684
39.303101 0.73634124 63.534065
39.303101 0.78204572 63.535446
39.303101 0.82775098 63.536827
39.303101 0.87345707 63.538208
39.303101 0.91916406 63.539589
39.303101 0.96487182 63.54097
39.303101 1.0105804 63.542351
39.303101 1.0562899 63.543732
39.303101 1.1020002 63.545113
39.303101 1.1477113 63.546497
39.303101 1.1934233 63.547878
39.303101 1.2391361 63.549259
39.303101 1.2848498 63.55064
39.303101 1.3305643 63.552021
39.303101 1.3762796 63.553402
39.303101 1.4219956 63.554783
39.303101 1.4677126 63.556164
39.303101 1.5134305 63.557549
39.303101 1.5591491 63.558929
39.303101 1.6048687 63.56031
39.303101 1.650589 63.561691
39.303101 1.6963102 63.563072
39.303101 1.7420322 63.564453
39.303101 1.787755 63.565838
39.303101 1.8334787 63.567219
39.303101 1.8792032 63.5686
39.303101 1.9249285 63.569981
39.303101 1.9706547 63.571365
39.303101 2.0163817 63.572746
39.303101 2.0621097 63.574127
39.303101 2.1078384 63.575508
39.303101 2.153568 63.576889
39.303101 2.1992984 63.578274
39.303101 2.2450294 63.579655
39.303101 2.2907615 63.581036
39.303101 2.3364944 63.58242
39.303101 2.3822281 63.583801
39.303101 2.4279628 63.585182
39.303101 2.4736981 63.586563
39.303101 2.5194345 63.587948
39.303101 2.5651715 63.589329
39.303101 2.6109095 63.59071
39.303101 2.6566482 63.592094
39.303101 2.7023878 63.593475
39.303101 2.7481279 63.594852
39.303101 2.7938693 63.596233
39.303101 2.8396113 63.597618
39.303101 2.8853543 63.598999
39.303101 2.931098 63.60038
39.303101 2.9768426 63.601765
39.303101 3.022588 63.603146
39.303101 3.0683343 63.604527
39.303101 3.1140816 63.605911
39.303101 3.1598294 63.607292
39.303101 3.2055783 63.608677
39.303101 3.251328 63.610058
39.303101 3.2970784 63.611439
39.303101 3.3428297 63.612823
39.303101 3.3885818 63.614204
39.303101 3.4343348 63.615589
39.303101 3.4800887 63.61697
39.303101 3.5258434 63.618355
39.303101 3.5715988 63.619736
39.303101 3.6173551 63.62112
39.303101 3.6631124 63.622501
39.303101 3.7088704 63.623882
39.303101 3.7546291 63.625267
39.303101 3.8003888 63.626648
39.303101 3.8461494 63.628033
39.303101 3.8919108 63.629414
39.303101 3.9376729 63.630798
39.303101 3.9834359 63.632179
39.303101 4.0292001 63.633564
39.303101 4.0749645 63.634945
39.303101 4.1207299 63.63633
39.303101 4.1664963 63.637714
39.303101 4.2122636 63.639095
39.303101 4.2580318 63.64048
39.303101 4.3038006 63.641861
39.303101 4.3495703 63.643246
39.303101 4.3953409 63.644627
39.303101 4.4411125 63.646011
39.303101 4.4868846 63.647392
39.303101 4.5326576 63.648777
39.303101 4.5784316 63.650162
39.303101 4.6242065 63.651543
39.303101 4.669982 63.652927
39.303101 4.7157583 63.654308
39.303101 4.7615356 63.655693
39.303101 4.8073139 63.657078
39.303101 4.8530927 63.658459
39.303101 4.8988729 63.659843
39.303101 4.9446535 63.661228
39.303101 4.9904346 63.662609
39.303101 5.0362172 63.663994
39.303101 5.0820003 63.665379
39.303101 5.1277843 63.666759
39.303101 5.1735692 63.668144
39.303101 5.2193546 63.669529
39.303101 5.2651415 63.67091
39.303101 5.3109288 63.672295
39.303101 5.3567166 63.673679
39.303101 5.4025059 63.675064
39.303101 5.4482956 63.676445
39.303101 5.4940863 63.67783
39.303101 5.5398779 63.679214
39.303101 5.5856705 63.680595
39.303101 5.6314635 63.68198
39.303101 5.6772575 63.683365
39.303101 5.7230525 63.68475
39.303101 5.7688484 63.686134
39.303101 5.8146448 63.687515
39.303101 5.8604422 63.6889
39.303101 5.9062405 63.690285
39.303101 5.9520397 63.691669
39.303101 5.9978395 63.69305
39.303101 6.0436401 63.694435
39.303101 6.0894418 63.69582
39.303101 6.1352444 63.697205
39.303101 6.1810474 63.698589
39.303101 6.2268515 63.699974
39.303101 6.2726564 63.701355
39.303101 6.3184624 63.70274
39.303101 6.3642693 63.704124
39.303101 6.4100766 63.705509
39.303101 6.4558849 63.706894
39.303101 6.5016942 63.708279
39.303101 6.5475039 63.709663
39.303101 6.5933146 63.711048
39.303101 6.6391263 63.712429
39.303101 6.6849389 63.713814
39.303101 6.7307525 63.715199
39.303101 6.7765665 63.716583
39.303101 6.8223815 63.717968
39.303101 6.8681974 63.719353
39.303101 6.9140143 63.720737
39.303101 6.9598317 63.722122
39.303101 7.00565 63.723507
39.303101 7.0514693 63.724892
39.303101 7.0972896 63.726276
39.303101 7.1431103 63.727661
39.303101 7.1889319 63.729046
39.303101 7.2347546 63.730431
39.303101 7.2805781 63.731815
39.303101 7.3264022 63.7332
39.303101 7.3722277 63.734585
39.303101 7.4180532 63.73597
39.303101 7.4638801 63.737354
39.303101 7.5097079 63.738739
39.303101 7.5555363 63.740124
39.303101 7.6013656 63.741508
39.303101 7.6471958 63.742893
39.303101 7.6930265 63.744278
39.303101 7.7388587 63.745663
39.303101 7.7846913 63.747047
39.303101 7.8305244 63.748428
39.303101 7.8763585 63.749813
39.303101 7.922194 63.751198
39.303101 7.96803 63.752583
39.303101 8.0138664 63.753967
39.303101 8.0597048 63.755352
39.303101 8.1055431 63.756737
39.303101 8.1513824 63.758121
39.303101 8.1972227 63.75951
39.303101 8.2430639 63.760895
39.303101 8.2889051 63.76228
39.303101 8.3347483 63.763664
39.303101 8.3805923 63.765049
39.303101 8.4264364 63.766434
39.303101 8.4722815 63.767818
39.303101 8.5181274 63.769207
39.303101 8.5639744 63.770592
39.303101 8.6098223 63.771976
39.303101 8.6556711 63.773361
39.303101 8.7015209 63.774746
39.303101 8.7473707 63.776134
39.303101 8.7932215 63.777519
39.303101 8.8390741 63.778904
39.303101 8.8849268 63.780289
39.303101 8.9307804 63.781673
39.303101 8.976635 63.783062
39.303101 9.0224905 63.784447
39.303101 9.068346 63.785831
39.303101 9.1142035 63.787216
39.303101 9.1600609 63.788605
39.303101 9.2059202 63.789989
39.303101 9.2517796 63.791374
39.303101 9.2976398 63.792759
39.303101 9.3435011 63.794147
39.303101 9.3893633 63.795532
39.303101 9.4352264 63.796917
39.303101 9.4810896 63.798306
39.303101 9.5269547 63.79969
39.303101 9.5728197 63.801075
39.303101 9.6186867 63.802464
39.303101 9.6645536 63.803848
39.303101 9.7104216 63.805233
39.303101 9.7562904 63.806622
39.303101 9.8021593 63.808006
39.303101 9.8480301 63.809391
39.303101 9.8939018 63.81078
39.303101 9.9397736 63.812164
39.303101 9.9856462 63.813553
39.303101 10.031521 63.814938
39.303101 10.077395 63.816322
39.303101 10.123271 63.817711
39.303101 10.169147 63.819096
39.303101 10.215024 63.820484
39.303101 10.260902 63.821869
39.303101 10.306781 63.823254
39.303101 10.352661 63.824642
39.303101 10.398541 63.826027
39.303101 10.444423 63.827415
39.645325 -9.9355536 63.21159
39.645325 -9.8900442 63.212967
39.645325 -9.8445339 63.21434
39.645325 -9.7990236 63.215717
39.645325 -9.7535114 63.217091
39.645325 -9.7079992 63.218468
39.645325 -9.6624851 63.219841
39.645325 -9.616971 63.221218
39.645325 -9.571456 63.222591
39.645325 -9.5259399 63.223969
39.645325 -9.480423 63.225346
39.645325 -9.4349051 63.226719
39.645325 -9.3893862 63.228096
39.645325 -9.3438673 63.229469
39.645325 -9.2983475 63.230846
39.645325 -9.2528257 63.23222
39.645325 -9.207304 63.233597
39.645325 -9.1617813 63.234974
39.645325 -9.1162577 63.236347
39.645325 -9.070734 63.237724
39.645325 -9.0252085 63.239101
39.645325 -8.9796829 63.240475
39.645325 -8.9341555 63.241852
39.645325 -8.888628 63.243225
39.645325 -8.8430996 63.244602
39.645325 -8.7975702 63.245979
39.645325 -8.7520399 63.247353
39.645325 -8.7065086 63.24873
39.645325 -8.6609774 63.250107
39.645325 -8.6154442 63.25148
39.645325 -8.569911 63.252857
39.645325 -8.5243769 63.254234
39.645325 -8.4788418 63.255611
39.645325 -8.4333057 63.256985
39.645325 -8.3877687 63.258362
39.645325 -8.3422308 63.259739
39.645325 -8.2966928 63.261112
39.645325 -8.251153 63.262489
39.645325 -8.2056131 63.263866
39.645325 -8.1600723 63.265244
39.645325 -8.1145306 63.266617
39.645325 -8.0689878 63.267994
39.645325 -8.0234442 63.269371
39.645325 -7.9779 63.270748
39.645325 -7.9323549 63.272125
39.645325 -7.8868089 63.273499
39.645325 -7.8412623 63.274876
39.645325 -7.7957144 63.276253
39.645325 -7.7501659 63.27763
39.645325 -7.704617 63.279007
39.645325 -7.6590667 63.28038
39.645325 -7.6135159 63.281757
39.645325 -7.5679641 63.283134
39.645325 -7.5224113 63.284512
39.645325 -7.4768577 63.285881
39.645325 -7.4313035 63.287258
39.645325 -7.3857484 63.288635
39.645325 -7.3401923 63.290012
39.645325 -7.2946358 63.291389
39.645325 -7.2490778 63.292767
39.645325 -7.2035193 63.294144
39.645325 -7.1579604 63.295521
39.645325 -7.1124001 63.296898
39.645325 -7.0668392 63.298271
39.645325 -7.0212774 63.299648
39.645325 -6.9757147 63.301025
39.645325 -6.9301515 63.302402
39.645325 -6.8845873 63.30378
39.645325 -6.8390222 63.305157
39.645325 -6.7934561 63.306534
39.645325 -6.7478895 63.307911
39.645325 -6.7023215 63.309288
39.645325 -6.6567531 63.310665
39.645325 -6.6111841 63.312042
39.645325 -6.5656137 63.313419
39.645325 -6.5200429 63.314796
39.645325 -6.4744711 63.316174
39.645325 -6.4288988 63.317551
39.645325 -6.3833251 63.318928
39.645325 -6.3377509 63.320305
39.645325 -6.2921758 63.321682
39.645325 -6.2465997 63.323059
39.645325 -6.2010231 63.324436
39.645325 -6.1554456 63.325813
39.645325 -6.1098671 63.32719
39.645325 -6.0642877 63.328568
39.645325 -6.0187078 63.329945
39.645325 -5.9731269 63.331322
39.645325 -5.9275451 63.332699
39.645325 -5.8819623 63.334076
39.645325 -5.8363791 63.335453
39.645325 -5.7907948 63.336834
39.645325 -5.7452097 63.338211
39.645325 -5.6996241 63.339588
39.645325 -5.654037 63.340965
39.645325 -5.6084495 63.342342
39.645325 -5.562861 63.343719
39.645325 -5.517272 63.345097
39.645325 -5.4716816 63.346474
39.645325 -5.4260907 63.347855
39.645325 -5.3804989 63.349232
39.645325 -5.3349066 63.350609
39.645325 -5.2893128 63.351986
39.645325 -5.2437186 63.353363
39.645325 -5.1981239 63.35474
39.645325 -5.1525278 63.356121
39.645325 -5.1069312 63.357498
39.645325 -5.0613337 63.358875
39.645325 -5.0157351 63.360252
39.645325 -4.9701357 63.361629
39.645325 -4.9245358 63.36301
39.645325 -4.8789349 63.364388
39.645325 -4.833333 63.365765
39.645325 -4.7877307 63.367142
39.645325 -4.7421269 63.368523
39.645325 -4.6965227 63.3699
39.645325 -4.6509175 63.371277
39.645325 -4.6053119 63.372654
39.645325 -4.5597053 63.374035
39.645325 -4.5140972 63.375412
39.645325 -4.4684892 63.376789
39.645325 -4.4228797 63.37817
39.645325 -4.3772697 63.379547
39.645325 -4.3316588 63.380924
39.645325 -4.286047 63.382301
39.645325 -4.2404346 63.383682
39.645325 -4.1948209 63.385059
39.645325 -4.1492066 63.386436
39.645325 -4.1035914 63.387817
39.645325 -4.0579758 63.389194
39.645325 -4.0123591 63.390572
39.645325 -3.9667413 63.391953
39.645325 -3.921123 63.39333
39.645325 -3.8755038 63.394711
39.645325 -3.8298836 63.396088
39.645325 -3.7842627 63.397465
39.645325 -3.7386408 63.398846
39.645325 -3.6930182 63.400223
39.645325 -3.6473949 63.401604
39.645325 -3.6017706 63.402981
39.645325 -3.5561454 63.404358
39.645325 -3.5105195 63.405739
39.645325 -3.4648929 63.407116
39.645325 -3.4192653 63.408497
39.645325 -3.3736367 63.409874
39.645325 -3.3280075 63.411255
39.645325 -3.2823775 63.412632
39.645325 -3.2367465 63.414009
39.645325 -3.1911147 63.41539
39.645325 -3.1454821 63.416767
39.645325 -3.0998487 63.418148
39.645325 -3.0542145 63.419525
39.645325 -3.0085793 63.420906
39.645325 -2.9629433 63.422283
39.645325 -2.9173064 63.423664
39.645325 -2.8716688 63.425041
39.645325 -2.8260305 63.426422
39.645325 -2.7803912 63.427799
39.645325 -2.734751 63.42918
39.645325 -2.68911 63.430561
39.645325 -2.6434684 63.431938
39.645325 -2.5978258 63.433319
39.645325 -2.5521822 63.434696
39.645325 -2.5065379 63.436077
39.645325 -2.4608929 63.437454
39.645325 -2.4152467 63.438831
39.645325 -2.3696001 63.440208
39.645325 -2.3239524 63.441589
39.645325 -2.2783039 63.442966
39.645325 -2.2326546 63.444347
39.645325 -2.1870046 63.445728
39.645325 -2.1413536 63.447105
39.645325 -2.0957017 63.448486
39.645325 -2.0500491 63.449867
39.645325 -2.0043957 63.451244
39.645325 -1.9587413 63.452625
39.645325 -1.9130862 63.454002
39.645325 -1.8674302 63.455383
39.645325 -1.8217734 63.456764
39.645325 -1.7761158 63.458145
39.645325 -1.7304573 63.459522
39.645325 -1.684798 63.460903
39.645325 -1.6391379 63.462284
39.645325 -1.5934769 63.463661
39.645325 -1.5478151 63.465042
39.645325 -1.5021523 63.466423
39.645325 -1.4564888 63.4678
39.645325 -1.4108245 63.469181
39.645325 -1.3651594 63.470562
39.645325 -1.3194934 63.471943
39.645325 -1.2738266 63.47332
39.645325 -1.228159 63.474701
39.645325 -1.1824903 63.476082
39.645325 -1.136821 63.477463
39.645325 -1.0911509 63.47884
39.645325 -1.0454799 63.480221
39.645325 -0.99980801 63.481602
39.645325 -0.95413536 63.482983
39.645325 -0.90846187 63.484364
39.645325 -0.86278749 63.485741
39.645325 -0.81711233 63.487122
39.645325 -0.77143627 63.488503
39.645325 -0.72575945 63.489883
39.645325 -0.68008173 63.491264
39.645325 -0.63440323 63.492645
39.645325 -0.58872384 63.494022
39.645325 -0.54304367 63.495403
39.645325 -0.49736261 63.496784
39.645325 -0.45168075 63.498165
39.645325 -0.40599805 63.499546
39.645325 -0.36031452 63.500927
39.645325 -0.31463012 63.502308
39.645325 -0.26894492 63.503689
39.645325 -0.22325887 63.505066
39.645325 -0.17757198 63.506447
39.645325 -0.13188426 63.507828
39.645325 -0.086195707 63.509209
39.645325 -0.040506318 63.51059
39.645325 0.005183911 63.511971
39.645325 0.050874975 63.513351
39.645325 0.096566871 63.514732
39.645325 0.14225961 63.516113
39.645325 0.18795317 63.517494
39.645325 0.23364758 63.518875
39.645325 0.27934283 63.520256
39.645325 0.32503891 63.521637
39.645325 0.37073582 63.523018
39.645325 0.41643357 63.524399
39.645325 0.46213216 63.52578
39.645325 0.50783157 63.527161
39.645325 0.55353183 63.528542
39.645325 0.59923297 63.529922
39.645325 0.64493489 63.531303
39.645325 0.69063765 63.532684
39.645325 0.73634124 63.534065
39.645325 0.78204572 63.535446
39.645325 0.82775098 63.536827
39.645325 0.87345707 63.538208
39.645325 0.91916406 63.539589
39.645325 0.96487182 63.54097
39.645325 1.0105804 63.542351
39.645325 1.0562899 63.543732
39.645325 1.1020002 63.545113
39.645325 1.1477113 63.546497
39.645325 1.1934233 63.547878
39.645325 1.2391361 63.549259
39.645325 1.2848498 63.55064
39.645325 1.3305643 63.552021
39.645325 1.3762796 63.553402
39.645325 1.4219956 63.554783
39.645325 1.4677126 63.556164
39.645325 1.5134305 63.557549
39.645325 1.5591491 63.558929
39.645325 1.6048687 63.56031
39.645325 1.650589 63.561691
39.645325 1.6963102 63.563072
39.645325 1.7420322 63.564453
39.645325 1.787755 63.565838
39.645325 1.8334787 63.567219
39.645325 1.8792032 63.5686
39.645325 1.9249285 63.569981
39.645325 1.9706547 63.571365
39.645325 2.0163817 63.572746
39.645325 2.0621097 63.574127
39.645325 2.1078384 63.575508
39.645325 2.153568 63.576889
39.645325 2.1992984 63.578274
39.645325 2.2450294 63.579655
39.645325 2.2907615 63.581036
39.645325 2.3364944 63.58242
39.645325 2.3822281 63.583801
39.645325 2.4279628 63.585182
39.645325 2.4736981 63.586563
39.645325 2.5194345 63.587948
39.645325 2.5651715 63.589329
39.645325 2.6109095 63.59071
39.645325 2.6566482 63.592094
39.645325 2.7023878 63.593475
39.645325 2.7481279 63.594852
39.645325 2.7938693 63.596233
39.645325 2.8396113 63.597618
39.645325 2.8853543 63.598999
39.645325 2.931098 63.60038
39.645325 2.9768426 63.601765
39.645325 3.022588 63.603146
39.645325 3.0683343 63.604527
39.645325 3.1140816 63.605911
39.645325 3.1598294 63.607292
39.645325 3.2055783 63.608677
39.645325 3.251328 63.610058
39.645325 3.2970784 63.611439
39.645325 3.3428297 63.612823
39.645325 3.3885818 63.614204
39.645325 3.4343348 63.615589
39.645325 3.4800887 63.61697
39.645325 3.5258434 63.618355
39.645325 3.5715988 63.619736
39.645325 3.6173551 63.62112
39.645325 3.6631124 63.622501
39.645325 3.7088704 63.623882
39.645325 3.7546291 63.625267
39.645325 3.8003888 63.626648
39.645325 3.8461494 63.628033
39.645325 3.8919108 63.629414
39.645325 3.9376729 63.630798
39.645325 3.9834359 63.632179
39.645325 4.0292001 63.633564
39.645325 4.0749645 63.634945
39.645325 4.1207299 63.63633
39.645325 4.1664963 63.637714
39.645325 4.2122636 63.639095
39.645325 4.2580318 63.64048
39.645325 4.3038006 63.641861
39.645325 4.3495703 63.643246
39.645325 4.3953409 63.644627
39.645325 4.4411125 63.646011
39.645325 4.4868846 63.647392
39.645325 4.5326576 63.648777
39.645325 4.5784316 63.650162
39.645325 4.6242065 63.651543
39.645325 4.669982 63.652927
39.645325 4.7157583 63.654308
39.645325 4.7615356 63.655693
39.645325 4.8073139 63.657078
39.645325 4.8530927 63.658459
39.645325 4.8988729 63.659843
39.645325 4.9446535 63.661228
39.645325 4.9904346 63.662609
39.645325 5.0362172 63.663994
39.645325 5.0820003 63.665379
39.645325 5.1277843 63.666759
39.645325 5.1735692 63.668144
39.645325 5.2193546 63.669529
39.645325 5.2651415 63.67091
39.645325 5.3109288 63.672295
39.645325 5.3567166 63.673679
39.645325 5.4025059 63.675064
39.645325 5.4482956 63.676445
39.645325 5.4940863 63.67783
39.645325 5.5398779 63.679214
39.645325 5.5856705 63.680595
39.645325 5.6314635 63.68198
39.645325 5.6772575 63.683365
39.645325 5.7230525 63.68475
39.645325 5.7688484 63.686134
39.645325 5.8146448 63.687515
39.645325 5.8604422 63.6889
39.645325 5.9062405 63.690285
39.645325 5.9520397 63.691669
39.645325 5.9978395 63.69305
39.645325 6.0436401 63.694435
39.645325 6.0894418 63.69582
39.645325 6.1352444 63.697205
39.645325 6.1810474 63.698589
39.645325 6.2268515 63.699974
39.645325 6.2726564 63.701355
39.645325 6.3184624 63.70274
39.645325 6.3642693 63.704124
39.645325 6.4100766 63.705509
39.645325 6.4558849 63.706894
39.645325 6.5016942 63.708279
39.645325 6.5475039 63.709663
39.645325 6.5933146 63.711048
39.645325 6.6391263 63.712429
39.645325 6.6849389 63.713814
39.645325 6.7307525 63.715199
39.645325 6.7765665 63.716583
39.645325 6.8223815 63.717968
39.645325 6.8681974 63.719353
39.645325 6.9140143 63.720737
39.645325 6.9598317 63.722122
39.645325 7.00565 63.723507
39.645325 7.0514693 63.724892
39.645325 7.0972896 63.726276
39.645325 7.1431103 63.727661
39.645325 7.1889319 63.729046
39.645325 7.2347546 63.730431
39.645325 7.2805781 63.731815
39.645325 7.3264022 63.7332
39.645325 7.3722277 63.734585
39.645325 7.4180532 63.73597
39.645325 7.4638801 63.737354
39.645325 7.5097079 63.738739
39.645325 7.5555363 63.740124
39.645325 7.6013656 63.741508
39.645325 7.6471958 63.742893
39.645325 7.6930265 63.744278
39.645325 7.7388587 63.745663
39.645325 7.7846913 63.747047
39.645325 7.8305244 63.748428
39.645325 7.8763585 63.749813
39.645325 7.922194 63.751198
39.645325 7.96803 63.752583
39.645325 8.0138664 63.753967
39.645325 8.0597048 63.755352
39.645325 8.1055431 63.756737
39.645325 8.1513824 63.758121
39.645325 8.1972227 63.75951
39.645325 8.2430639 63.760895
39.645325 8.2889051 63.76228
39.645325 8.3347483 63.763664
39.645325 8.3805923 63.765049
39.645325 8.4264364 63.766434
39.645325 8.4722815 63.767818
39.645325 8.5181274 63.769207
39.645325 8.5639744 63.770592
39.645325 8.6098223 63.771976
39.645325 8.6556711 63.773361
39.645325 8.7015209 63.774746
39.645325 8.7473707 63.776134
39.645325 8.7932215 63.777519
39.645325 8.8390741 63.778904
39.645325 8.8849268 63.780289
39.645325 8.9307804 63.781673
39.645325 8.976635 63.783062
39.645325 9.0224905 63.784447
39.645325 9.068346 63.785831
39.645325 9.1142035 63.787216
39.645325 9.1600609 63.788605
39.645325 9.2059202 63.789989
39.645325 9.2517796 63.791374
39.645325 9.2976398 63.792759
39.645325 9.3435011 63.794147
39.645325 9.3893633 63.795532
39.645325 9.4352264 63.796917
39.645325 9.4810896 63.798306
39.645325 9.5269547 63.79969
39.645325 9.5728197 63.801075
39.645325 9.6186867 63.802464
39.645325 9.6645536 63.803848
39.645325 9.7104216 63.805233
39.645325 9.7562904 63.806622
39.645325 9.8021593 63.808006
39.645325 9.8480301 63.809391
39.645325 9.8939018 63.81078
39.645325 9.9397736 63.812164
39.645325 9.9856462 63.813553
39.645325 10.031521 63.814938
39.645325 10.077395 63.816322
39.645325 10.123271 63.817711
39.645325 10.169147 63.819096
39.645325 10.215024 63.820484
39.645325 10.260902 63.821869
39.645325 10.306781 63.823254
39.645325 10.352661 63.824642
39.645325 10.398541 63.826027
39.645325 10.444423 63.827415
39.971691 -9.9355536 63.21159
39.971691 -9.8900442 63.212967
39.971691 -9.8445339 63.21434
39.971691 -9.7990236 63.215717
39.971691 -9.7535114 63.217091
39.971691 -9.7079992 63.218468
39.971691 -9.6624851 63.219841
39.971691 -9.616971 63.221218
39.971691 -9.571456 63.222591
39.971691 -9.5259399 63.223969
39.971691 -9.480423 63.225346
39.971691 -9.4349051 63.226719
39.971691 -9.3893862 63.228096
39.971691 -9.3438673 63.229469
39.971691 -9.2983475 63.230846
39.971691 -9.2528257 63.23222
39.971691 -9.207304 63.233597
39.971691 -9.1617813 63.234974
39.971691 -9.1162577 63.236347
39.971691 -9.070734 63.237724
39.971691 -9.0252085 63.239101
39.971691 -8.9796829 63.240475
39.971691 -8.9341555 63.241852
39.971691 -8.888628 63.243225
39.971691 -8.8430996 63.244602
39.971691 -8.7975702 63.245979
39.971691 -8.7520399 63.247353
39.971691 -8.7065086 63.24873
39.971691 -8.6609774 63.250107
39.971691 -8.6154442 63.25148
39.971691 -8.569911 63.252857
39.971691 -8.5243769 63.254234
39.971691 -8.4788418 63.255611
39.971691 -8.4333057 63.256985
39.971691 -8.3877687 63.258362
39.971691 -8.3422308 63.259739
39.971691 -8.2966928 63.261112
39.971691 -8.251153 63.262489
39.971691 -8.2056131 63.263866
39.971691 -8.1600723 63.265244
39.971691 -8.1145306 63.266617
39.971691 -8.0689878 63.267994
39.971691 -8.0234442 63.269371
39.971691 -7.9779 63.270748
39.971691 -7.9323549 63.272125
39.971691 -7.8868089 63.273499
39.971691 -7.8412623 63.274876
39.971691 -7.7957144 63.276253
39.971691 -7.7501659 63.27763
39.971691 -7.704617 63.279007
39.971691 -7.6590667 63.28038
39.971691 -7.6135159 63.281757
39.971691 -7.5679641 63.283134
39.971691 -7.5224113 63.284512
39.971691 -7.4768577 63.285881
39.971691 -7.4313035 63.287258
39.971691 -7.3857484 63.288635
39.971691 -7.3401923 63.290012
39.971691 -7.2946358 63.291389
39.971691 -7.2490778 63.292767
39.971691 -7.2035193 63.294144
39.971691 -7.1579604 63.295521
39.971691 -7.1124001 63.296898
39.971691 -7.0668392 63.298271
39.971691 -7.0212774 63.299648
39.971691 -6.9757147 63.301025
39.971691 -6.9301515 63.302402
39.971691 -6.8845873 63.30378
39.971691 -6.8390222 63.305157
39.971691 -6.7934561 63.306534
39.971691 -6.7478895 63.307911
39.971691 -6.7023215 63.309288
39.971691 -6.6567531 63.310665
39.971691 -6.6111841 63.312042
39.971691 -6.5656137 63.313419
39.971691 -6.5200429 63.314796
39.971691 -6.4744711 63.316174
39.971691 -6.4288988 63.317551
39.971691 -6.3833251 63.318928
39.971691 -6.3377509 63.320305
39.971691 -6.2921758 63.321682
39.971691 -6.2465997 63.323059
39.971691 -6.2010231 63.324436
39.971691 -6.1554456 63.325813
39.971691 -6.1098671 63.32719
39.971691 -6.0642877 63.328568
39.971691 -6.0187078 63.329945
39.971691 -5.9731269 63.331322
39.971691 -5.9275451 63.332699
39.971691 -5.8819623 63.334076
39.971691 -5.8363791 63.335453
39.971691 -5.7907948 63.336834
39.971691 -5.7452097 63.338211
39.971691 -5.6996241 63.339588
39.971691 -5.654037 63.340965
39.971691 -5.6084495 63.342342
39.971691 -5.562861 63.343719
39.971691 -5.517272 63.345097
39.971691 -5.4716816 63.346474
39.971691 -5.4260907 63.347855
39.971691 -5.3804989 63.349232
39.971691 -5.3349066 63.350609
39.971691 -5.2893128 63.351986
39.971691 -5.2437186 63.353363
39.971691 -5.1981239 63.35474
39.971691 -5.1525278 63.356121
39.971691 -5.1069312 63.357498
39.971691 -5.0613337 63.358875
39.971691 -5.0157351 63.360252
39.971691 -4.9701357 63.361629
39.971691 -4.9245358 63.36301
39.971691 -4.8789349 63.364388
39.971691 -4.833333 63.365765
39.971691 -4.7877307 63.367142
39.971691 -4.7421269 63.368523
39.971691 -4.6965227 63.3699
39.971691 -4.6509175 63.371277
39.971691 -4.6053119 63.372654
39.971691 -4.5597053 63.374035
39.971691 -4.5140972 63.375412
39.971691 -4.4684892 63.376789
39.971691 -4.4228797 63.37817
39.971691 -4.3772697 63.379547
39.971691 -4.3316588 63.380924
39.971691 -4.286047 63.382301
39.971691 -4.2404346 63.383682
39.971691 -4.1948209 63.385059
39.971691 -4.1492066 63.386436
39.971691 -4.1035914 63.387817
39.971691 -4.0579758 63.389194
39.971691 -4.0123591 63.390572
39.971691 -3.9667413 63.391953
39.971691 -3.921123 63.39333
39.971691 -3.8755038 63.394711
39.971691 -3.8298836 63.396088
39.971691 -3.7842627 63.397465
39.971691 -3.7386408 63.398846
39.971691 -3.6930182 63.400223
39.971691 -3.6473949 63.401604
39.971691 -3.6017706 63.402981
39.971691 -3.5561454 63.404358
39.971691 -3.5105195 63.405739
39.971691 -3.4648929 63.407116
39.971691 -3.4192653 63.408497
39.971691 -3.3736367 63.409874
39.971691 -3.3280075 63.411255
39.971691 -3.2823775 63.412632
39.971691 -3.2367465 63.414009
39.971691 -3.1911147 63.41539
39.971691 -3.1454821 63.416767
39.971691 -3.0998487 63.418148
39.971691 -3.0542145 63.419525
39.971691 -3.0085793 63.420906
39.971691 -2.9629433 63.422283
39.971691 -2.9173064 63.423664
39.971691 -2.8716688 63.425041
39.971691 -2.8260305 63.426422
39.971691 -2.7803912 63.427799
39.971691 -2.734751 63.42918
39.971691 -2.68911 63.430561
39.971691 -2.6434684 63.431938
39.971691 -2.5978258 63.433319
39.971691 -2.5521822 63.434696
39.971691 -2.5065379 63.436077
39.971691 -2.4608929 63.437454
39.971691 -2.4152467 63.438831
39.971691 -2.3696001 63.440208
39.971691 -2.3239524 63.441589
39.971691 -2.2783039 63.442966
39.971691 -2.2326546 63.444347
39.971691 -2.1870046 63.445728
39.971691 -2.1413536 63.447105
39.971691 -2.0957017 63.448486
39.971691 -2.0500491 63.449867
39.971691 -2.0043957 63.451244
39.971691 -1.9587413 63.452625
39.971691 -1.9130862 63.454002
39.971691 -1.8674302 63.455383
39.971691 -1.8217734 63.456764
39.971691 -1.7761158 63.458145
39.971691 -1.7304573 63.459522
39.971691 -1.684798 63.460903
39.971691 -1.6391379 63.462284
39.971691 -1.5934769 63.463661
39.971691 -1.5478151 63.465042
39.971691 -1.5021523 63.466423
39.971691 -1.4564888 63.4678
39.971691 -1.4108245 63.469181
39.971691 -1.3651594 63.470562
39.971691 -1.3194934 63.471943
39.971691 -1.2738266 63.47332
39.971691 -1.228159 63.474701
39.971691 -1.1824903 63.476082
39.971691 -1.136821 63.477463
39.971691 -1.0911509 63.47884
39.971691 -1.0454799 63.480221
39.971691 -0.99980801 63.481602
39.971691 -0.95413536 63.482983
39.971691 -0.90846187 63.484364
39.971691 -0.86278749 63.485741
39.971691 -0.81711233 63.487122
39.971691 -0.77143627 63.488503
39.971691 -0.72575945 63.489883
39.971691 -0.68008173 63.491264
39.971691 -0.63440323 63.492645
39.971691 -0.58872384 63.494022
39.971691 -0.54304367 63.495403
39.971691 -0.49736261 63.496784
39.971691 -0.45168075 63.498165
39.971691 -0.40599805 63.499546
39.971691 -0.36031452 63.500927
39.971691 -0.31463012 63.502308
39.971691 -0.26894492 63.503689
39.971691 -0.22325887 63.505066
39.971691 -0.17757198 63.506447
39.971691 -0.13188426 63.507828
39.971691 -0.086195707 63.509209
39.971691 -0.040506318 63.51059
39.971691 0.005183911 63.511971
39.971691 0.050874975 63.513351
39.971691 0.096566871 63.514732
39.971691 0.14225961 63.516113
39.971691 0.18795317 63.517494
39.971691 0.23364758 63.518875
39.971691 0.27934283 63.520256
39.971691 0.32503891 63.521637
39.971691 0.37073582 63.523018
39.971691 0.41643357 63.524399
39.971691 0.46213216 63.52578
39.971691 0.50783157 63.527161
39.971691 0.55353183 63.528542
39.971691 0.59923297 63.529922
39.971691 0.64493489 63.531303
39.971691 0.69063765 63.532684
39.971691 0.73634124 63.534065
39.971691 0.78204572 63.535446
39.971691 0.82775098 63.536827
39.971691 0.87345707 63.538208
39.971691 0.91916406 63.539589
39.971691 0.96487182 63.54097
39.971691 1.0105804 63.542351
39.971691 1.0562899 63.543732
39.971691 1.1020002 63.545113
39.971691 1.1477113 63.546497
39.971691 1.1934233 63.547878
39.971691 1.2391361 63.549259
39.971691 1.2848498 63.55064
39.971691 1.3305643 63.552021
39.971691 1.3762796 63.553402
39.971691 1.4219956 63.554783
39.971691 1.4677126 63.556164
39.971691 1.5134305 63.557549
39.971691 1.5591491 63.558929
39.971691 1.6048687 63.56031
39.971691 1.650589 63.561691
39.971691 1.6963102 63.563072
39.971691 1.7420322 63.564453
39.971691 1.787755 63.565838
39.971691 1.8334787 63.567219
39.971691 1.8792032 63.5686
39.971691 1.9249285 63.569981
39.971691 1.9706547 63.571365
39.971691 2.0163817 63.572746
39.971691 2.0621097 63.574127
39.971691 2.1078384 63.575508
39.971691 2.153568 63.576889
39.971691 2.1992984 63.578274
39.971691 2.2450294 63.579655
39.971691 2.2907615 63.581036
39.971691 2.3364944 63.58242
39.971691 2.3822281 63.583801
39.971691 2.4279628 63.585182
39.971691 2.4736981 63.586563
39.971691 2.5194345 63.587948
39.971691 2.5651715 63.589329
39.971691 2.6109095 63.59071
39.971691 2.6566482 63.592094
39.971691 2.7023878 63.593475
39.971691 2.7481279 63.594852
39.971691 2.7938693 63.596233
39.971691 2.8396113 63.597618
39.971691 2.8853543 63.598999
39.971691 2.931098 63.60038
39.971691 2.9768426 63.601765
39.971691 3.022588 63.603146
39.971691 3.0683343 63.604527
39.971691 3.1140816 63.605911
39.971691 3.1598294 63.607292
39.971691 3.2055783 63.608677
39.971691 3.251328 63.610058
39.971691 3.2970784 63.611439
39.971691 3.3428297 63.612823
39.971691 3.3885818 63.614204
39.971691 3.4343348 63.615589
39.971691 3.4800887 63.61697
39.971691 3.5258434 63.618355
39.971691 3.5715988 63.619736
39.971691 3.6173551 63.62112
39.971691 3.6631124 63.622501
39.971691 3.7088704 63.623882
39.971691 3.7546291 63.625267
39.971691 3.8003888 63.626648
39.971691 3.8461494 63.628033
39.971691 3.8919108 63.629414
39.971691 3.9376729 63.630798
39.971691 3.9834359 63.632179
39.971691 4.0292001 63.633564
39.971691 4.0749645 63.634945
39.971691 4.1207299 63.63633
39.971691 4.1664963 63.637714
39.971691 4.2122636 63.639095
39.971691 4.2580318 63.64048
39.971691 4.3038006 63.641861
39.971691 4.3495703 63.643246
39.971691 4.3953409 63.644627
39.971691 4.4411125 63.646011
39.971691 4.4868846 63.647392
39.971691 4.5326576 63.648777
39.971691 4.5784316 63.650162
39.971691 4.6242065 63.651543
39.971691 4.669982 63.652927
39.971691 4.7157583 63.654308
39.971691 4.7615356 63.655693
39.971691 4.8073139 63.657078
39.971691 4.8530927 63.658459
39.971691 4.8988729 63.659843
39.971691 4.9446535 63.661228
39.971691 4.9904346 63.662609
39.971691 5.0362172 63.663994
39.971691 5.0820003 63.665379
39.971691 5.1277843 63.666759
39.971691 5.1735692 63.668144
39.971691 5.2193546 63.669529
39.971691 5.2651415 63.67091
39.971691 5.3109288 63.672295
39.971691 5.3567166 63.673679
39.971691 5.4025059 63.675064
39.971691 5.4482956 63.676445
39.971691 5.4940863 63.67783
39.971691 5.5398779 63.679214
39.971691 5.5856705 63.680595
39.971691 5.6314635 63.68198
39.971691 5.6772575 63.683365
39.971691 5.7230525 63.68475
39.971691 5.7688484 63.686134
39.971691 5.8146448 63.687515
39.971691 5.8604422 63.6889
39.971691 5.9062405 63.690285
39.971691 5.9520397 63.691669
39.971691 5.9978395 63.69305
39.971691 6.0436401 63.694435
39.971691 6.0894418 63.69582
39.971691 6.1352444 63.697205
39.971691 6.1810474 63.698589
39.971691 6.2268515 63.699974
39.971691 6.2726564 63.701355
39.971691 6.3184624 63.70274
39.971691 6.3642693 63.704124
39.971691 6.4100766 63.705509
39.971691 6.4558849 63.706894
39.971691 6.5016942 63.708279
39.971691 6.5475039 63.709663
39.971691 6.5933146 63.711048
39.971691 6.6391263 63.712429
39.971691 6.6849389 63.713814
39.971691 6.7307525 63.715199
39.971691 6.7765665 63.716583
39.971691 6.8223815 63.717968
39.971691 6.8681974 63.719353
39.971691 6.9140143 63.720737
39.971691 6.9598317 63.722122
39.971691 7.00565 63.723507
39.971691 7.0514693 63.724892
39.971691 7.0972896 63.726276
39.971691 7.1431103 63.727661
39.971691 7.1889319 63.729046
39.971691 7.2347546 63.730431
39.971691 7.2805781 63.731815
39.971691 7.3264022 63.7332
39.971691 7.3722277 63.734585
39.971691 7.4180532 63.73597
39.971691 7.4638801 63.737354
39.971691 7.5097079 63.738739
39.971691 7.5555363 63.740124
39.971691 7.6013656 63.741508
39.971691 7.6471958 63.742893
39.971691 7.6930265 63.744278
39.971691 7.7388587 63.745663
39.971691 7.7846913 63.747047
39.971691 7.8305244 63.748428
39.971691 7.8763585 63.749813
39.971691 7.922194 63.751198
39.971691 7.96803 63.752583
39.971691 8.0138664 63.753967
39.971691 8.0597048 63.755352
39.971691 8.1055431 63.756737
39.971691 8.1513824 63.758121
39.971691 8.1972227 63.75951
39.971691 8.2430639 63.760895
39.971691 8.2889051 63.76228
39.971691 8.3347483 63.763664
39.971691 8.3805923 63.765049
39.971691 8.4264364 63.766434
39.971691 8.4722815 63.767818
39.971691 8.5181274 63.769207
39.971691 8.5639744 63.770592
39.971691 8.6098223 63.771976
39.971691 8.6556711 63.773361
39.971691 8.7015209 63.774746
39.971691 8.7473707 63.776134
39.971691 8.7932215 63.777519
39.971691 8.8390741 63.778904
39.971691 8.8849268 63.780289
39.971691 8.9307804 63.781673
39.971691 8.976635 63.783062
39.971691 9.0224905 63.784447
39.971691 9.068346 63.785831
39.971691 9.1142035 63.787216
39.971691 9.1600609 63.788605
39.971691 9.2059202 63.789989
39.971691 9.2517796 63.791374
39.971691 9.2976398 63.792759
