# .PCD v0.7 - Point Cloud Data file format
VERSION 0.7
FIELDS x y z normal_x normal_y normal_z curvature
SIZE 4 4 4 4 4 4 4
TYPE F F F F F F F
COUNT 1 1 1 1 1 1 1
WIDTH 582
HEIGHT 1
VIEWPOINT 0 0 0 1 0 0 0
POINTS 582
DATA ascii
0.11321971 0.17434306 -0.97814918 -0.11057544 -0.17179988 0.97890651 1.2643953e-05
0.1649656 0.17690393 -0.97029811 -0.16421671 -0.17419425 0.97092187 3.3560689e-05
-0.15550363 0.18532202 -0.97029108 0.15641865 -0.18169166 0.97083545 0.00014213982
-0.1039554 0.18005601 -0.97814363 0.10251264 -0.17882244 0.97852629 0.00013267188
-0.094375767 0.18522289 -0.97815025 0.091126323 -0.18376549 0.97873706 0.0001265054
-0.084565036 0.18993621 -0.978145 0.082450457 -0.18743449 0.97881067 0.00012691952
0.084565043 0.18993621 -0.978145 -0.082467452 -0.18743472 0.97880912 0.00012552083
0.094375767 0.18522289 -0.97815025 -0.09111882 -0.18376702 0.97873747 0.00012704523
0.10395537 0.18005602 -0.97814363 -0.10014693 -0.18009193 0.97853851 9.4936768e-05
0.15550363 0.18532202 -0.97029108 -0.1564201 -0.18170498 0.97083271 0.00013979862
-0.14557059 0.19317874 -0.9702996 0.14459947 -0.19235952 0.97061259 0.00021458219
-0.074497849 0.19407353 -0.97815216 0.074148282 -0.1924466 0.97850209 4.7971618e-05
-0.064248122 0.19773543 -0.97814631 0.06402012 -0.19668935 0.97837353 0
-0.05730816 0.19985731 -0.97814679 0.056951925 -0.19904479 0.97833413 0
0.057308163 0.19985731 -0.97814679 -0.057473626 -0.19895051 0.9783228 2.8808028e-05
0.06424813 0.19773543 -0.97814631 -0.064025678 -0.19666761 0.97837752 0
0.074497856 0.19407353 -0.97815216 -0.074165069 -0.19248249 0.97849375 3.962862e-05
0.14557061 0.19317874 -0.9702996 -0.14461531 -0.19237851 0.97060651 0.00020962997
-0.13528056 0.20056172 -0.97029287 0.13472779 -0.19994219 0.97050065 0.00021030464
-0.12458064 0.20733698 -0.97030067 0.12167376 -0.20994413 0.9701128 0.00012603955
-0.050298337 0.20173563 -0.97814703 0.050725874 -0.20055141 0.97836906 2.8768745e-05
-0.043227192 0.20336802 -0.97814655 0.043820038 -0.2047524 0.97783244 0.0001131032
-0.03610345 0.20475282 -0.97814691 0.03615224 -0.20377113 0.97835082 0.00014628776
-0.025334306 0.2063314 -0.9781521 0.026177324 -0.20557408 0.97829133 1.9477082e-05
-0.014503145 0.20740464 -0.97814524 0.013277308 -0.20657228 0.97834122 4.9524715e-05
-0.0036280188 0.20784895 -0.97815078 0.0053371764 -0.20673472 0.97838241 0
0.0072559882 0.20778434 -0.97814471 -0.0050871633 -0.20672399 0.97838604 0
0.014503161 0.20740481 -0.97814602 -0.013254889 -0.20647371 0.97836238 0
0.025334332 0.20633161 -0.97815305 -0.02697565 -0.20533536 0.97831988 0.0002722925
0.036103457 0.20475282 -0.97814691 -0.037395459 -0.20374623 0.97830933 0.00022052311
0.043227203 0.20336802 -0.97814655 -0.045229621 -0.20454744 0.97781116 0.00010639968
0.050298329 0.20173559 -0.97814685 -0.047412511 -0.20176633 0.97828543 0.0001766934
0.12458062 0.20733699 -0.97030067 -0.12168583 -0.2099621 0.9701075 0.00012114808
0.13528059 0.2005617 -0.97029287 -0.13472317 -0.19992927 0.97050399 0.00014894041
-0.11357504 0.21360359 -0.97029239 0.11476714 -0.21100312 0.97072452 0.00019434288
-0.10605121 0.21743721 -0.97029251 0.10574903 -0.21672572 0.97048807 0.0001887597
0.10605121 0.21743721 -0.97029251 -0.10574853 -0.21672747 0.97048783 0.00018862706
0.11357505 0.21360359 -0.97029239 -0.11477415 -0.21100549 0.97072327 0.00019327145
-0.094512582 0.22265771 -0.97030175 0.096398853 -0.2217745 0.9703213 4.5342393e-05
-0.08274202 0.22733183 -0.97029424 0.083648726 -0.22735575 0.97021252 6.6798093e-05
0.08274202 0.22733183 -0.97029424 -0.08366365 -0.2273372 0.97021556 6.9601803e-05
0.094512582 0.22265771 -0.97030175 -0.096384615 -0.22175717 0.9703266 5.0666815e-05
-0.074757785 0.23008083 -0.97029346 0.073408552 -0.23078012 0.97023278 0
-0.066682577 0.23254977 -0.97029382 0.066128828 -0.23288433 0.97025359 5.0166233e-05
-0.054412685 0.2356873 -0.97030306 0.056262903 -0.23546273 0.97025347 2.7396165e-05
-0.042009234 0.23824619 -0.97029436 0.045105677 -0.23797801 0.97022259 0.00014143225
-0.033668969 0.23956721 -0.97029459 0.034473293 -0.23996426 0.97016943 0.00021380936
0.033668987 0.23956728 -0.97029483 -0.036116529 -0.23971464 0.97017133 0.00021517686
0.042009246 0.23824619 -0.97029442 -0.043260179 -0.23586501 0.97082245 0
0.054412682 0.23568729 -0.970303 -0.054255057 -0.23590834 0.97025955 0.0001427439
0.066682585 0.23254977 -0.97029382 -0.066128939 -0.23283383 0.97026557 2.2697999e-05
0.074757792 0.23008083 -0.97029346 -0.07341449 -0.23069672 0.97025222 0
-0.025287686 0.24059619 -0.97029406 0.025395256 -0.24109018 0.97017038 0.00015203282
-0.016875582 0.24133204 -0.97029358 0.016291717 -0.24182075 0.97018415 0.00010587843
-0.0042214985 0.24184969 -0.97030187 0.0029277613 -0.24078146 0.97057498 0.00026889078
0.0084429402 0.24177419 -0.97029454 -0.0095008286 -0.2419166 0.97025055 9.8231449e-06
0.01687561 0.24133235 -0.97029489 -0.016332386 -0.24173057 0.97020596 0.00011583174
0.025287697 0.24059646 -0.97029519 -0.026053099 -0.24099714 0.9701761 0.0001831819
-0.047863908 -0.27144977 -0.96126163 0.050204441 0.27001676 0.96154583 3.3823184e-05
-0.038361371 -0.27295503 -0.96126223 0.039249744 0.27160531 0.96160799 0.00015364912
-0.028811919 -0.27412742 -0.96126187 0.028401507 0.27278805 0.96165484 0.00014394318
-0.019227486 -0.27496555 -0.96126044 0.017966079 0.27389532 0.96159166 5.2188607e-05
-0.0096196551 -0.27546874 -0.96125925 0.0081355693 0.27447176 0.96156073 4.719169e-05
0.0048098178 -0.27555564 -0.9612695 -0.0048199338 0.27592701 0.9611665 0
0.019227467 -0.27496523 -0.96125925 -0.017991532 0.27360138 0.96167493 3.3586479e-05
0.028811894 -0.27412716 -0.96126086 -0.02797121 0.27245408 0.96176213 0.00014711908
0.038361352 -0.27295488 -0.96126169 -0.038093437 0.27117616 0.96177566 0.00019683214
0.04786393 -0.27144989 -0.96126199 -0.048716046 0.26986778 0.96166432 2.8710047e-05
-0.085176729 -0.26214692 -0.96126252 0.08432094 0.26023531 0.96185637 0.00014177257
-0.075975932 -0.26495975 -0.96126199 0.073968291 0.26362252 0.96178579 0.00010219825
-0.066682711 -0.26744971 -0.96126151 0.063706577 0.26688567 0.96162021 0
-0.057308283 -0.26961395 -0.96126151 0.057695843 0.26827404 0.96161336 0
0.057308156 -0.26961398 -0.96126145 -0.056624182 0.26815099 0.96171135 0
0.066682719 -0.26744971 -0.96126151 -0.067899138 0.26714396 0.96126157 0
0.075975932 -0.26495975 -0.96126199 -0.073977187 0.26360121 0.96179092 0
0.085176736 -0.26214692 -0.96126252 -0.084322341 0.26016155 0.96187615 8.427893e-05
-0.11211155 -0.25180665 -0.96125942 0.110877 0.24973923 0.96194416 0.0001288904
-0.10325544 -0.25556606 -0.96126002 0.10229839 0.25669947 0.96106213 0.00010358033
-0.094273485 -0.25901434 -0.96126145 0.094427802 0.25649178 0.96192276 0.00014418289
0.094273493 -0.25901434 -0.96126145 -0.094422318 0.25652322 0.96191484 0.0001365162
0.10325533 -0.25556609 -0.96126002 -0.1022994 0.25671783 0.96105713 0.00013609296
0.11211155 -0.25180665 -0.96125942 -0.11087832 0.24973787 0.9619444 9.2287584e-05
-0.12511872 -0.24555936 -0.9612698 0.1236399 0.24489005 0.96163511 0.00019830136
0.12511873 -0.24555935 -0.9612698 -0.12364766 0.24488816 0.96163458 0.00019744119
-0.14606535 -0.23375337 -0.96126026 0.14598216 0.23485835 0.96100509 0.00029121494
-0.13781838 -0.2387085 -0.96125978 0.13881375 0.2375713 0.96140033 0.00015102711
0.13781838 -0.2387085 -0.96125978 -0.13879693 0.23753494 0.96141177 0.0001611495
0.14606537 -0.23375334 -0.96126026 -0.14594965 0.23483934 0.96101469 0.00029982167
-0.16201581 -0.22299553 -0.96126282 0.1622774 0.22301084 0.96121395 7.3987721e-05
-0.15413435 -0.22851357 -0.96126103 0.15263829 0.23051709 0.96102208 6.9628193e-05
0.15413435 -0.22851357 -0.96126103 -0.15265937 0.2305522 0.96101034 0.00013032586
0.16201572 -0.22299561 -0.96126282 -0.16228148 0.22303334 0.96120805 6.9676433e-05
-0.17717598 -0.21115018 -0.96126026 0.17809457 0.21196277 0.96091318 0.0002466758
-0.16969928 -0.21720517 -0.96126151 0.17140211 0.21544649 0.96135533 0.00010602514
0.16969928 -0.21720517 -0.96126151 -0.17140804 0.21543378 0.96135718 3.8063416e-05
0.17717598 -0.21115017 -0.96126026 -0.1781223 0.21196467 0.96090764 0.00024149561
-0.18443698 -0.20483798 -0.96125948 0.18462867 0.20201012 0.96182334 0.00032734519
0.18443699 -0.20483798 -0.96125948 -0.18464066 0.20199347 0.96182454 0.00032775136
-0.19487694 -0.19487695 -0.96126938 0.19212954 0.19465621 0.96187067 0.00011111487
0.19487691 -0.19487697 -0.96126938 -0.19208619 0.19467793 0.96187496 0.00011449516
-0.20483799 -0.18443696 -0.96125948 0.20201014 0.18461537 0.96182591 0.00033005027
0.20483801 -0.18443695 -0.96125948 -0.20200819 0.1846004 0.96182919 0.00033297538
-0.21115017 -0.177176 -0.96126026 0.21196659 0.17812416 0.9609068 0.00024122462
0.21115012 -0.17717604 -0.96126026 -0.21199617 0.17810339 0.96090412 0.00023959861
-0.22299559 -0.16201574 -0.96126282 0.22303101 0.16229519 0.9612062 6.7473236e-05
-0.2172052 -0.16969925 -0.96126151 0.2175405 0.16866384 0.96136808 1.0736349e-05
0.2172052 -0.16969925 -0.96126151 -0.21756078 0.16869916 0.9613573 7.0463124e-05
0.22299556 -0.16201578 -0.96126282 -0.22303249 0.16228023 0.9612084 6.9831607e-05
-0.22851355 -0.15413436 -0.96126103 0.23055111 0.15267186 0.96100861 0.00012821879
0.22851352 -0.15413441 -0.96126103 -0.23057413 0.15267481 0.96100253 0.00012371018
-0.23375338 -0.14606532 -0.96126026 0.23485813 0.14598639 0.96100456 0.00036194859
0.23375338 -0.14606532 -0.96126026 -0.23487133 0.1459675 0.96100414 0.00028998568
-0.23870847 -0.1378184 -0.96125978 0.23753422 0.13879627 0.96141201 0.0001612506
0.23870845 -0.13781846 -0.96125978 -0.23763588 0.13880369 0.96138579 0.00013837354
-0.24555936 -0.12511872 -0.9612698 0.24488397 0.1236321 0.96163762 0.00020005018
0.24555935 -0.12511875 -0.9612698 -0.24488784 0.12363312 0.96163648 0.00019952281
-0.25180668 -0.11211151 -0.96125942 0.24971709 0.11084742 0.9619534 0.00010055234
0.25180668 -0.1121115 -0.96125942 -0.24971917 0.11084707 0.96195281 0.00013688732
-0.25556606 -0.10325541 -0.96126002 0.25667739 0.10228229 0.96106976 7.2925301e-05
0.25556606 -0.10325541 -0.96126002 -0.25671574 0.10229471 0.96105826 9.9956531e-05
-0.25901434 -0.094273508 -0.96126145 0.25650671 0.094420031 0.96191949 0.00014083287
0.25901431 -0.094273567 -0.96126145 -0.25645816 0.094433591 0.96193117 0.00015223514
-0.26214695 -0.085176699 -0.96126252 0.26019484 0.084338851 0.96186566 7.3960378e-05
0.26214695 -0.085176691 -0.96126252 -0.26014817 0.084335037 0.96187866 0.00012505878
-0.26495972 -0.075975962 -0.96126199 0.26355678 0.073982373 0.96180266 1.966806e-07
0.26495969 -0.075976014 -0.96126205 -0.2635262 0.074008398 0.9618091 6.9166263e-06
-0.26744971 -0.066682681 -0.96126151 0.26714572 0.067874856 0.96126276 0
0.26744971 -0.066682659 -0.96126151 -0.26683477 0.063714817 0.96163392 0
-0.26961395 -0.057308242 -0.96126145 0.26765636 0.059871364 0.96165252 2.6793805e-05
0.26961395 -0.057308238 -0.96126151 -0.26823157 0.057701245 0.9616248 0
-0.27144989 -0.047863953 -0.96126199 0.26986849 0.048731431 0.96166325 0.00010499053
0.27144977 -0.047863994 -0.96126163 -0.26995084 0.050425105 0.96155286 0
-0.27295488 -0.038361311 -0.96126169 0.27121663 0.038098026 0.96176404 0.00018661558
0.27295503 -0.038361322 -0.96126217 -0.27166572 0.039509568 0.96158034 0.00015924261
-0.27412716 -0.028811915 -0.96126086 0.27248716 0.027976736 0.96175259 0.00013788376
0.27412739 -0.028812002 -0.96126175 -0.27291062 0.028522672 0.9616164 0.00028241973
-0.27496526 -0.019227423 -0.96125925 0.27360395 0.017991479 0.96167415 3.3279121e-05
0.27496558 -0.01922744 -0.9612605 -0.27394721 0.017985579 0.96157652 5.0528302e-05
-0.27555564 -0.0048098387 -0.9612695 0.27592698 0.0048208768 0.9611665 0
0.2754688 -0.0096196122 -0.96125942 -0.27451429 0.0081003513 0.96154886 0
-0.27546877 0.0096195694 -0.96125925 0.27449241 -0.0081345895 0.96155483 7.9409903e-05
0.27558333 0.0032065741 -0.96126842 -0.27605626 -0.0048792181 0.96112919 0
-0.27496558 0.019227466 -0.96126044 0.27386472 -0.017970303 0.9616003 6.1118095e-05
0.27496535 0.019227449 -0.9612596 -0.27365869 -0.018023381 0.961658 0
-0.27412742 0.028811961 -0.96126187 0.27275512 -0.02840714 0.96166396 0.00015309837
0.27412724 0.028811933 -0.96126109 -0.27249143 -0.027948353 0.96175218 0.00023835582
-0.27295503 0.038361348 -0.96126223 0.27160582 -0.03925851 0.96160758 0.00015329011
0.27295491 0.038361311 -0.96126181 -0.27113578 -0.037981234 0.96179152 0.00019212608
-0.27144977 0.047863953 -0.96126163 0.27002493 -0.050220698 0.96154273 0.00011117043
0.27144989 0.047863942 -0.96126199 -0.26976773 -0.048454888 0.96170551 0.00011363344
-0.26961398 0.057308197 -0.96126151 0.26822615 -0.0576801 0.96162766 0
0.26961398 0.057308216 -0.96126145 -0.26772714 -0.059670374 0.96164525 0
-0.26744971 0.066682696 -0.96126151 0.26683483 -0.063706785 0.9616344 0
0.26744971 0.066682704 -0.96126151 -0.26710361 -0.06789545 0.96127307 1.6798614e-06
-0.26495972 0.075975977 -0.96126199 0.26358628 -0.073967531 0.96179581 0.00011173587
0.26495972 0.075975977 -0.96126199 -0.26360092 -0.073969245 0.96179157 0
-0.26214692 0.085176714 -0.96126252 0.26016724 -0.084318832 0.9618749 0.00015979547
0.26214695 0.085176706 -0.96126252 -0.26019466 -0.084331073 0.96186644 7.4646174e-05
-0.25901434 0.094273522 -0.96126145 0.25645638 -0.0944167 0.96193326 0.00015400695
0.25901434 0.0942735 -0.96126145 -0.2565065 -0.094413012 0.96192026 0.00014160595
-0.25556606 0.10325542 -0.96126002 0.25527698 -0.10552078 0.96109265 0.00010614347
0.25556606 0.1032554 -0.96126002 -0.25529477 -0.10552285 0.96108764 6.4890955e-05
-0.25180668 0.11211153 -0.96125942 0.24975246 -0.11085527 0.96194327 0.0001278194
0.25180665 0.11211155 -0.96125942 -0.2497194 -0.11084755 0.96195269 0.00010031854
-0.24555935 0.12511875 -0.9612698 0.24489008 -0.12362585 0.96163696 0.00020034995
0.24555935 0.12511875 -0.9612698 -0.24488804 -0.12361749 0.96163851 0.00020157198
-0.23870847 0.13781843 -0.96125978 0.23751296 -0.13879514 0.9614175 0.00016543306
0.23870847 0.13781841 -0.96125978 -0.23756863 -0.13879959 0.96140307 0.00015352355
-0.23375337 0.14606534 -0.96126026 0.23484336 -0.14598089 0.96100891 0.00029493426
0.23375338 0.14606532 -0.96126026 -0.23484218 -0.14596711 0.96101135 0.00029717732
-0.22851354 0.15413438 -0.96126103 0.23055287 -0.15267256 0.96100801 0.00012798872
0.22851357 0.15413435 -0.96126103 -0.23055217 -0.15265885 0.9610104 0.00013045775
-0.22299559 0.16201575 -0.96126282 0.22301443 -0.16227837 0.96121293 7.3646996e-05
-0.21720518 0.16969927 -0.96126151 0.21541435 -0.17138709 0.96136528 4.4654254e-05
0.21720518 0.16969928 -0.96126151 -0.21545053 -0.17143266 0.96134901 0.00010056709
0.22299558 0.16201577 -0.96126282 -0.22303052 -0.16228142 0.9612087 6.9893096e-05
-0.21115015 0.17717601 -0.96126026 0.21197522 -0.17809556 0.9609102 0.00024375398
0.21115015 0.177176 -0.96126026 -0.21196207 -0.17809516 0.96091324 0.00024676515
-0.20483799 0.18443696 -0.96125948 0.20201014 -0.18461537 0.96182591 0.00033005027
0.20483799 0.18443696 -0.96125948 -0.20199318 -0.18462528 0.96182758 0.00033067833
-0.19487691 0.19487697 -0.96126938 0.19208476 -0.19464946 0.96188098 0.0001202253
0.19487694 0.19487694 -0.96126938 -0.19209756 -0.19463429 0.96188146 0.00012037127
-0.18443698 0.20483799 -0.96125948 0.18464231 -0.2020127 0.96182013 0.00032435911
0.18443695 0.20483801 -0.96125948 -0.18219906 -0.20422146 0.96181965 0.00027486886
-0.17717601 0.21115015 -0.96126026 0.17808163 -0.21197547 0.9609127 0.0002462246
-0.16969927 0.21720518 -0.96126151 0.17142302 -0.21543612 0.96135396 3.5276233e-05
0.16969928 0.21720517 -0.96126151 -0.17141546 -0.21544802 0.96135265 0.00010352881
0.17717601 0.21115015 -0.96126026 -0.17809416 -0.21196111 0.9609136 0.00024688561
-0.16201575 0.22299558 -0.96126282 0.16227905 -0.22301266 0.96121323 7.3708536e-05
-0.15413433 0.22851357 -0.96126103 0.15264696 -0.23051649 0.96102089 0.00010389537
0.15413435 0.22851355 -0.96126103 -0.1526563 -0.23053434 0.96101511 0.00013437512
0.16201578 0.22299556 -0.96126282 -0.16227722 -0.22299671 0.96121722 7.7338053e-05
-0.14606534 0.23375337 -0.96126026 0.14596486 -0.23484033 0.96101213 0.00029748524
-0.13781843 0.23870847 -0.96125978 0.13879836 -0.23755175 0.96140736 0.00015730273
0.1378184 0.2387085 -0.96125978 -0.1358842 -0.23926061 0.96139997 0.00014599074
0.14606532 0.23375338 -0.96126026 -0.14596641 -0.23484109 0.96101165 0.00029730023
-0.12511875 0.24555935 -0.9612698 0.12362555 -0.24488862 0.9616372 0.00020048153
0.12511875 0.24555936 -0.9612698 -0.12362486 -0.24488807 0.96163756 0.00020058049
-0.11211153 0.25180668 -0.96125942 0.11084742 -0.24971709 0.9619534 0.00010055234
-0.1032554 0.25556606 -0.96126002 0.10551638 -0.25529498 0.96108836 6.5720262e-05
-0.0942735 0.25901434 -0.96126145 0.094413102 -0.25650647 0.96192026 0.00014154147
0.094273508 0.25901434 -0.96126145 -0.094425224 -0.25645509 0.96193278 0.00015339418
0.10325541 0.25556606 -0.96126002 -0.10552819 -0.25527731 0.96109176 0.00010521052
0.11211154 0.25180668 -0.96125942 -0.1108563 -0.24975513 0.96194243 0.00012755203
-0.085176691 0.26214695 -0.96126252 0.084323525 -0.26019448 0.96186715 7.5397198e-05
-0.075975977 0.26495972 -0.96126199 0.073975027 -0.26355711 0.9618032 8.195031e-07
-0.066682696 0.26744971 -0.96126151 0.067883886 -0.26714537 0.96126229 0
-0.057308197 0.26961398 -0.96126145 0.056630123 -0.26815698 0.96170932 0
0.057308208 0.26961398 -0.96126151 -0.057693094 -0.26822338 0.96162766 0
0.066682704 0.26744971 -0.96126151 -0.063697487 -0.26687998 0.96162242 0
0.075975984 0.26495972 -0.96126199 -0.073983148 -0.26358351 0.96179533 0.00011071921
0.085176699 0.26214695 -0.96126252 -0.084335394 -0.26020294 0.96186376 0.00014915179
-0.047863945 0.27144989 -0.96126199 0.048724685 -0.26986593 0.96166438 2.854752e-05
-0.0383613 0.27295488 -0.96126169 0.038090125 -0.27121377 0.96176511 0.00018721595
-0.028811935 0.27412716 -0.96126086 0.027972877 -0.27249485 0.96175051 0.00021134375
-0.019227443 0.27496526 -0.96125925 0.017991222 -0.27360392 0.96167415 3.3279117e-05
-0.0048098429 0.27555564 -0.9612695 0.0048196036 -0.27596962 0.96115428 0
0.0096195815 0.27546877 -0.96125925 -0.0081363637 -0.27449232 0.96155483 7.9409903e-05
0.019227475 0.27496558 -0.96126044 -0.017968835 -0.27386472 0.9616003 6.1084276e-05
0.028811941 0.27412742 -0.96126187 -0.028409045 -0.27275521 0.96166396 0.00015306496
0.03836133 0.27295503 -0.96126223 -0.039263014 -0.27160603 0.96160728 0.00015302903
0.047863934 0.27144977 -0.96126163 -0.050208904 -0.27001709 0.96154547 3.3601078e-05
-0.064248331 -0.30226427 -0.95105654 0.062445484 0.30159089 0.95139027 0
-0.053660236 -0.30432242 -0.95105654 0.055102173 0.30304292 0.95138252 0.00010121811
-0.043006908 -0.30600971 -0.95105654 0.043962516 0.30448642 0.95150161 2.0628113e-05
-0.032301057 -0.30732438 -0.95105708 0.032460306 0.30516794 0.95174515 9.1487134e-05
-0.021555969 -0.30826443 -0.9510569 0.021382494 0.30573955 0.95187509 4.0160496e-05
-0.01078462 -0.30882877 -0.95105642 0.010589958 0.30608106 0.9519465 0
3.6900873e-09 -0.30901691 -0.95105612 -5.0428771e-05 0.30606917 0.95200932 0
0.010784477 -0.30882868 -0.95105612 -0.010631688 0.30585045 0.95202017 1.8006747e-05
0.021555966 -0.30826426 -0.95105642 -0.021256782 0.30552849 0.95194566 0
0.032301057 -0.30732435 -0.9510569 -0.032032073 0.30476508 0.95188874 5.3499582e-05
0.043006938 -0.30600986 -0.95105708 -0.043085061 0.30392921 0.95171988 0.00014124096
0.05366024 -0.30432239 -0.95105654 -0.05457668 0.30279404 0.95149213 8.6702952e-05
0.064248197 -0.3022643 -0.95105654 -0.065662652 0.30093727 0.95138073 6.0913873e-05
-0.10569009 -0.29038122 -0.95105708 0.10463417 0.28862119 0.95170873 9.3686991e-05
-0.095491551 -0.29389268 -0.95105654 0.093963973 0.29296198 0.95149571 5.3776545e-05
-0.085176602 -0.29704627 -0.95105654 0.083317369 0.29654276 0.95137829 5.7892103e-05
-0.074758008 -0.29983795 -0.95105654 0.076103926 0.29849574 0.95137191 0
0.074758008 -0.29983795 -0.95105654 -0.072925374 0.29927108 0.95137727 5.7065321e-05
0.085176602 -0.29704627 -0.95105654 -0.083319448 0.29651839 0.95138568 2.6673953e-05
0.095491558 -0.29389268 -0.95105654 -0.093941323 0.29299343 0.9514882 4.6637455e-05
0.1056901 -0.29038119 -0.95105708 -0.10463426 0.28862625 0.95170718 9.2990347e-05
-0.12568854 -0.28230107 -0.95105642 0.12463271 0.27968758 0.95196724 7.9918762e-05
-0.11575993 -0.28651571 -0.9510569 0.11480598 0.2842378 0.95185524 2.3687526e-05
0.1157598 -0.28651574 -0.9510569 -0.11482014 0.28419536 0.95186615 7.0961069e-05
0.12568854 -0.28230107 -0.95105642 -0.12464675 0.27969021 0.9519645 7.7671903e-05
-0.14507467 -0.27284575 -0.95105612 0.14370139 0.27033743 0.95198089 8.8921755e-05
-0.13546406 -0.27774259 -0.95105612 0.13422862 0.27513543 0.95198911 9.6526252e-05
0.13546406 -0.27774259 -0.95105612 -0.13424252 0.27510208 0.95199674 0.00010355263
0.14507468 -0.27284575 -0.95105612 -0.14369825 0.27030051 0.95199186 9.850286e-05
-0.16375421 -0.26206145 -0.95105702 0.1630536 0.25841075 0.95217508 0.0001539415
-0.15450847 -0.26761657 -0.95105642 0.15378161 0.2652787 0.95182896 0.00014451666
0.15450847 -0.26761657 -0.95105642 -0.15373605 0.26519606 0.95185935 2.80526e-05
0.16375422 -0.26206142 -0.95105702 -0.16304573 0.25842124 0.95217359 0.00011624074
-0.17280035 -0.25618708 -0.95105773 0.17114481 0.25567439 0.95149362 6.001773e-05
0.17280035 -0.25618708 -0.95105773 -0.17114329 0.25567129 0.95149475 6.0490816e-05
0.18163557 -0.25 -0.9510563 -0.18141682 0.24960005 0.95120329 0.00016273896
-0.19024985 -0.24350868 -0.9510563 0.19067167 0.24249017 0.95123225 0.00017632935
-0.18163568 -0.24999994 -0.9510563 0.18142001 0.24961835 0.95119792 0.00019408853
0.19024985 -0.24350868 -0.9510563 -0.19070062 0.24250948 0.95122153 0.00016712261
-0.1986322 -0.23672071 -0.95105606 0.19560781 0.23636699 0.95177114 0.00013573169
0.1986322 -0.2367207 -0.95105606 -0.19557904 0.23634374 0.95178282 7.5220654e-05
-0.2146613 -0.22228831 -0.95105666 0.21123764 0.21943611 0.95248431 0.00012321297
-0.2067727 -0.22964431 -0.95105612 0.20704387 0.22594965 0.95188206 7.662789e-05
0.20677271 -0.2296443 -0.95105612 -0.20707221 0.22595613 0.95187443 6.9940739e-05
0.2146613 -0.22228831 -0.95105666 -0.21123667 0.21947883 0.95247471 0.00011590813
-0.2222883 -0.21466132 -0.95105666 0.21944845 0.211243 0.95248032 0.0001199202
0.22228824 -0.21466136 -0.95105666 -0.21946438 0.21124281 0.95247674 0.00011668856
-0.22964433 -0.20677269 -0.95105612 0.22593509 0.20703 0.95188862 8.2732513e-05
0.22964433 -0.20677267 -0.95105612 -0.22886714 0.204165 0.95180696 7.5569682e-05
-0.24350873 -0.19024982 -0.9510563 0.24249344 0.19068439 0.95122892 0.00020862375
-0.2367207 -0.19863223 -0.95105606 0.23348579 0.1986372 0.95185483 5.2569896e-05
0.23672064 -0.19863227 -0.95105606 -0.23349451 0.19868979 0.95184171 7.5640339e-05
0.24350873 -0.19024982 -0.9510563 -0.24249029 0.19068211 0.95123017 0.00020916668
-0.25 -0.18163559 -0.9510563 0.2496395 0.18139513 0.95119709 0.00015696793
0.24999996 -0.18163563 -0.9510563 -0.24961738 0.18143266 0.95119578 0.00019174226
-0.25618705 -0.17280038 -0.95105773 0.25567237 0.17115843 0.95149171 5.7871417e-05
0.25618702 -0.17280042 -0.95105773 -0.2557078 0.17116539 0.95148087 4.935194e-05
-0.26206145 -0.16375417 -0.95105702 0.26047179 0.15901075 0.95229727 0.00017494737
0.26206145 -0.16375417 -0.95105702 -0.26048774 0.15902855 0.95228994 0.00016830838
-0.26761657 -0.15450849 -0.95105642 0.2651799 0.15374865 0.9518618 0.00017542926
0.26761654 -0.15450856 -0.95105642 -0.26524287 0.15379563 0.95183671 0.00015121434
-0.27284577 -0.14507464 -0.95105612 0.27030388 0.14366989 0.95199519 0.00010241257
0.27284577 -0.14507462 -0.95105612 -0.27036506 0.14368685 0.95197523 8.2932849e-05
-0.27774259 -0.13546409 -0.95105612 0.27510816 0.13421445 0.95199901 0.00010685952
0.27774256 -0.13546413 -0.95105612 -0.27510333 0.13422735 0.95199853 0.0001055107
-0.2823011 -0.12568849 -0.95105642 0.27972487 0.12462824 0.95195687 7.1093928e-05
0.2823011 -0.12568849 -0.95105642 -0.27972957 0.12466643 0.95195043 6.5362226e-05
-0.28651571 -0.11575989 -0.9510569 0.28421944 0.11480059 0.95186138 0
0.28651571 -0.11575989 -0.9510569 -0.28427759 0.11479998 0.9518441 1.426544e-05
-0.29038119 -0.10569012 -0.95105708 0.28862604 0.10463372 0.9517073 9.3056777e-05
0.29038119 -0.10569018 -0.95105708 -0.28862882 0.10463429 0.95170635 9.2691844e-05
-0.29389271 -0.095491514 -0.95105654 0.29291746 0.093963653 0.95150942 6.5184271e-05
0.29389271 -0.095491506 -0.95105654 -0.29288897 0.093963467 0.95151824 7.4458563e-05
-0.29704627 -0.085176624 -0.95105654 0.29650107 0.083325163 0.95139062 0
0.29704624 -0.085176691 -0.95105654 -0.29646045 0.08333192 0.95140266 4.5460506e-06
-0.29983795 -0.074757963 -0.95105654 0.29927051 0.072940767 0.9513762 5.5826968e-05
0.29983795 -0.074757956 -0.95105654 -0.29841253 0.076103412 0.95139807 5.069594e-07
-0.30226427 -0.064248294 -0.95105654 0.30088693 0.065618433 0.95139968 4.1909912e-05
0.30226427 -0.064248279 -0.95105654 -0.3016077 0.062425956 0.95138627 2.8299883e-05
-0.30432239 -0.053660262 -0.95105654 0.30279621 0.054572556 0.95149165 8.6541193e-05
0.30432239 -0.053660333 -0.95105654 -0.3030366 0.055094313 0.95138502 0.00014240929
-0.30600986 -0.04300689 -0.95105708 0.30387273 0.043106642 0.95173693 0.00012044736
0.30600971 -0.04300686 -0.95105654 -0.30456153 0.044148032 0.95146894 0
-0.30732435 -0.032301083 -0.9510569 0.30480576 0.032047193 0.95187521 4.1928248e-05
0.30732438 -0.03230115 -0.95105702 -0.30535322 0.03255989 0.95168233 0
-0.30826426 -0.021555915 -0.95105642 0.30548662 0.02125911 0.95195907 0
0.3082644 -0.021555919 -0.95105684 -0.30581695 0.021421315 0.95184934 0
-0.30882868 -0.010784501 -0.95105612 0.30588794 0.010633138 0.95200819 7.3866013e-06
0.30882877 -0.01078457 -0.95105636 -0.30613515 0.010584963 0.95192921 0
-0.30901691 -2.7020233e-08 -0.95105612 0.30606624 5.033581e-05 0.95201021 0
0.30901694 2.702007e-08 -0.95105618 -0.30612862 -6.8994639e-05 0.95199019 0
-0.30882877 0.010784524 -0.95105642 0.30608097 -0.01058718 0.95194662 0
0.30882871 0.010784535 -0.95105618 -0.30592352 -0.010650903 0.95199656 0
-0.30826443 0.021555947 -0.9510569 0.30577976 -0.021389486 0.95186192 2.8782721e-05
0.30826429 0.021555938 -0.95105648 -0.30542812 -0.021259323 0.95197785 0
-0.30732438 0.032301106 -0.95105708 0.30527195 -0.032462072 0.95171177 6.0151084e-05
0.30732435 0.032301091 -0.9510569 -0.30469263 -0.031990521 0.95191336 0
-0.30600971 0.043006886 -0.95105654 0.30448943 -0.043970063 0.95150036 1.9844854e-05
0.30600971 0.043006863 -0.95105654 -0.30379125 -0.042994242 0.95176804 8.6663465e-05
-0.30432239 0.053660285 -0.95105654 0.30302134 -0.055089388 0.95139009 7.0581562e-05
0.30432239 0.053660247 -0.95105654 -0.30267838 -0.054391626 0.95153946 0.00020702826
-0.3022643 0.064248234 -0.95105654 0.30160764 -0.062421229 0.95138657 2.8634795e-05
0.3022643 0.064248264 -0.95105654 -0.30092996 -0.065646686 0.95138407 0.00010285109
-0.29983795 0.074757978 -0.95105654 0.29840395 -0.076087572 0.95140201 2.8516095e-06
0.29983795 0.074757993 -0.95105654 -0.29927528 -0.072917834 0.95137656 0
-0.29704627 0.085176647 -0.95105654 0.29653978 -0.083333619 0.95137781 5.6755325e-05
0.29704627 0.085176647 -0.95105654 -0.2965388 -0.083332956 0.95137811 0
-0.29389268 0.095491536 -0.95105654 0.29288709 -0.093957618 0.95151943 7.5458993e-05
0.29389271 0.095491521 -0.95105654 -0.29284465 -0.093968607 0.95153141 1.157649e-05
-0.29038119 0.10569014 -0.95105708 0.28864694 -0.10462689 0.95170164 0.00012493499
0.29038119 0.10569011 -0.95105708 -0.2886267 -0.10464989 0.95170528 9.1163682e-05
-0.28651571 0.1157599 -0.9510569 0.28424028 -0.11479922 0.95185542 2.4214747e-05
0.28651571 0.11575987 -0.9510569 -0.28422415 -0.1147932 0.9518609 0
-0.2823011 0.12568852 -0.95105642 0.27972731 -0.12463497 0.95195526 6.9726462e-05
0.28230107 0.12568854 -0.95105642 -0.27969241 -0.12463341 0.95196569 7.9300509e-05
-0.27774259 0.1354641 -0.95105612 0.27513987 -0.1342594 0.95198345 9.1648646e-05
0.27774256 0.1354641 -0.95105612 -0.2750448 -0.13421421 0.95201731 1.4698444e-05
-0.27284575 0.14507465 -0.95105612 0.27023551 -0.14369185 0.95201129 4.5235513e-05
0.27284575 0.14507465 -0.95105612 -0.27033272 -0.14367065 0.95198685 9.4027993e-05
-0.26761657 0.15450852 -0.95105642 0.26524147 -0.1537675 0.95184165 0.00015598278
0.26761657 0.1545085 -0.95105642 -0.26524073 -0.15376616 0.95184207 0.00015620107
-0.26206145 0.16375418 -0.95105702 0.2604728 -0.15902476 0.95229465 0.00017259552
0.26206145 0.16375417 -0.95105702 -0.25844148 -0.16307516 0.9521631 0.00014303322
-0.25618705 0.17280039 -0.95105773 0.25569087 -0.17116068 0.95148629 5.3643464e-05
0.25618708 0.17280035 -0.95105773 -0.2556887 -0.17114717 0.95148933 5.6167813e-05
-0.25 0.1816356 -0.9510563 0.24961498 -0.18141986 0.95119888 0.00015888084
0.24999999 0.18163562 -0.9510563 -0.2496248 -0.18139191 0.95120162 0.00016079523
-0.24350871 0.19024983 -0.9510563 0.24253786 -0.19069198 0.95121604 0.00019763601
-0.23672068 0.19863224 -0.95105606 0.23632808 -0.19556274 0.95178998 8.1744416e-05
0.23672068 0.19863223 -0.95105606 -0.23635994 -0.19556403 0.95178181 0.00014518906
0.24350871 0.19024985 -0.9510563 -0.24251941 -0.19068775 0.95122164 0.00020177045
-0.22964433 0.20677269 -0.95105612 0.22882231 -0.20417155 0.95181632 8.3011742e-05
0.22964433 0.20677269 -0.95105612 -0.22595307 -0.20705657 0.95187855 7.3407369e-05
-0.22228827 0.21466134 -0.95105666 0.21944611 -0.21122642 0.95248449 0.00012321223
0.2222883 0.21466132 -0.95105666 -0.21948257 -0.21127604 0.95246518 0.00010716073
-0.21466129 0.22228833 -0.95105666 0.21127015 -0.21944143 0.95247597 0.00011662941
-0.2067727 0.22964431 -0.95105612 0.20705248 -0.22592081 0.95188707 8.0462341e-05
0.20677267 0.22964434 -0.95105612 -0.20415564 -0.22881745 0.95182085 8.6608801e-05
0.21466132 0.2222883 -0.95105666 -0.21128303 -0.2195186 0.95245534 9.9772085e-05
-0.19863224 0.23672068 -0.95105606 0.19556709 -0.23634513 0.95178491 7.774913e-05
0.19863224 0.23672068 -0.95105606 -0.19557559 -0.23631282 0.95179117 8.239923e-05
-0.19024983 0.24350871 -0.9510563 0.19070207 -0.24252294 0.95121783 0.00019884271
0.19024985 0.24350868 -0.9510563 -0.19067144 -0.2424892 0.95123255 0.00017644976
-0.1816356 0.24999999 -0.9510563 0.18140262 -0.24961112 0.95120305 0.000161968
-0.17280033 0.25618708 -0.95105773 0.17114651 -0.25568852 0.95148951 5.6199468e-05
0.17280035 0.25618705 -0.95105773 -0.17114648 -0.25568652 0.95149004 5.6546294e-05
0.18163563 0.24999999 -0.9510563 -0.18140258 -0.24961348 0.95120251 0.00019729884
-0.16375418 0.26206145 -0.95105702 0.16304277 -0.25840652 0.95217806 0.00012036798
-0.15450852 0.26761657 -0.95105642 0.15376596 -0.26523858 0.95184267 0.00015651211
0.15450849 0.26761657 -0.95105642 -0.15376933 -0.26527882 0.95183092 0.00014666683
0.16375417 0.26206145 -0.95105702 -0.15899922 -0.2604382 0.9523083 0.00011324562
-0.14507465 0.27284575 -0.95105612 0.14366424 -0.27029589 0.95199829 3.2532123e-05
-0.1354641 0.27774259 -0.95105612 0.13421817 -0.27511299 0.95199698 0
0.1354641 0.27774259 -0.95105612 -0.13422805 -0.27513483 0.95198935 9.6654439e-05
0.14507467 0.27284575 -0.95105612 -0.14363319 -0.27029344 0.95200366 3.744991e-05
-0.12568852 0.2823011 -0.95105642 0.12463475 -0.27972728 0.95195526 6.9791655e-05
-0.11575987 0.28651571 -0.9510569 0.1147919 -0.28422347 0.9518612 0
0.11575989 0.28651571 -0.9510569 -0.11481199 -0.28423727 0.95185471 2.2896826e-05
0.12568852 0.2823011 -0.95105642 -0.12464274 -0.27972561 0.95195466 6.9009693e-05
-0.10569011 0.29038119 -0.95105708 0.10462815 -0.28862667 0.95170772 9.3720868e-05
-0.095491506 0.29389271 -0.95105654 0.093959868 -0.29287547 0.95152277 2.9024641e-06
-0.085176647 0.29704627 -0.95105654 0.083317935 -0.29650101 0.95139122 0
-0.074757986 0.29983795 -0.95105654 0.072926767 -0.29924029 0.95138687 6.6804976e-05
0.074757993 0.29983795 -0.95105654 -0.076109834 -0.2984052 0.9513998 1.0772744e-06
0.085176654 0.29704627 -0.95105654 -0.083339721 -0.29649824 0.95139021 0
0.095491514 0.29389271 -0.95105654 -0.093957148 -0.29288685 0.95151943 7.5492324e-05
0.10569012 0.29038119 -0.95105708 -0.10464828 -0.28864676 0.95169938 0.000122411
-0.064248241 0.3022643 -0.95105654 0.065637819 -0.30093521 0.95138305 6.2702755e-05
-0.053660255 0.30432239 -0.95105654 0.054573115 -0.30279645 0.95149153 8.6541237e-05
-0.043006878 0.30600986 -0.95105708 0.043099478 -0.30387241 0.9517374 0.00012084411
-0.032301106 0.30732435 -0.9510569 0.032041661 -0.30480552 0.95187551 4.216305e-05
-0.021555938 0.30826426 -0.95105642 0.021264421 -0.30548683 0.95195878 0
-0.010784524 0.30882868 -0.95105612 0.010632155 -0.30588791 0.95200819 7.3865999e-06
-1.3512666e-08 0.30901691 -0.95105612 5.0212497e-05 -0.30606624 0.95201021 0
0.010784538 0.30882877 -0.95105642 -0.010589033 -0.30608103 0.95194662 0
0.021555958 0.30826443 -0.9510569 -0.02138604 -0.30577707 0.95186293 2.9321225e-05
0.032301079 0.30732438 -0.95105708 -0.032460619 -0.30523461 0.95172375 7.1017268e-05
0.043006863 0.30600971 -0.95105654 -0.043976054 -0.30445549 0.95151091 3.0093415e-05
0.053660262 0.30432239 -0.95105654 -0.055086233 -0.30302131 0.95139033 7.0806862e-05
0.064248249 0.3022643 -0.95105654 -0.062433768 -0.30160734 0.95138586 2.7764017e-05
-0.035750806 -0.34014663 -0.93969268 0.037378762 0.33865583 0.94016761 0.00016385291
-0.02385815 -0.34118709 -0.93969268 0.025544664 0.3397696 0.94016176 0.00015923887
-0.011936425 -0.3418119 -0.93969268 0.013669029 0.34042442 0.94017255 0.00010003341
4.0785508e-09 -0.34202024 -0.93969268 0.0017831357 0.34072113 0.94016278 9.2199829e-05
0.01193627 -0.3418119 -0.93969268 -0.013668995 0.34039494 0.94018322 0.0001459006
0.023858158 -0.34118709 -0.93969268 -0.025541743 0.33972648 0.94017744 0.00010494023
0.035750818 -0.34014663 -0.93969268 -0.037384812 0.33865356 0.94016808 0.00016395876
-0.082742199 -0.33186078 -0.93969268 0.084130116 0.33008096 0.94019616 0.00012133041
-0.071110085 -0.33454627 -0.93969268 0.069090366 0.33363104 0.94016856 0.00013127373
-0.059391174 -0.33682421 -0.93969268 0.057411913 0.33572826 0.94020772 0.0001974043
-0.047600068 -0.33869171 -0.93969268 0.045653734 0.3376005 0.94018167 0.0002468554
0.047600076 -0.33869171 -0.93969268 -0.049174882 0.3371169 0.94017768 0.00017475148
0.059391182 -0.33682418 -0.93969268 -0.057423074 0.33582348 0.94017297 0.00023811593
0.071109936 -0.3345463 -0.93969268 -0.069082215 0.33362883 0.94016999 0.00016832673
0.082742207 -0.33186078 -0.93969268 -0.080684669 0.33099321 0.94017726 0.00017489424
-0.11697778 -0.32139391 -0.93969268 0.11483576 0.32065248 0.94020998 0.00020278059
-0.1056901 -0.32528058 -0.93969268 0.10697169 0.32351345 0.94015753 0.00022689211
-0.094273508 -0.32877097 -0.93969268 0.095624819 0.32701671 0.94016808 0.00016405855
0.094273508 -0.32877097 -0.93969268 -0.095614322 0.32697609 0.94018328 0.00021236589
0.10569011 -0.32528058 -0.93969268 -0.10697205 0.3235088 0.94015902 0.00022755995
0.1169778 -0.32139391 -0.93969268 -0.11483454 0.32064646 0.94021213 0.00020377238
-0.13911217 -0.31245103 -0.93969268 0.13693334 0.31191599 0.9401902 0.00011583055
-0.1281231 -0.31711563 -0.93969268 0.12596302 0.31652212 0.94018459 0.0001815912
0.12812297 -0.31711566 -0.93969268 -0.12598161 0.31654051 0.94017595 0.00017112819
0.13911217 -0.31245103 -0.93969268 -0.13694589 0.31194475 0.94017893 0.00010489706
-0.1605688 -0.30198595 -0.93969268 0.15903901 0.30104885 0.94025332 3.1144649e-05
-0.14993174 -0.3074058 -0.93969268 0.14769296 0.30688739 0.94021642 4.8458071e-07
0.14993176 -0.3074058 -0.93969268 -0.14769226 0.30688733 0.94021654 5.5380764e-07
0.16056882 -0.30198595 -0.93969268 -0.16215499 0.29958263 0.94018936 8.6388376e-05
-0.1812432 -0.2900497 -0.93969297 0.17970231 0.28738531 0.94080645 0.00021694237
-0.17101009 -0.29619825 -0.93969268 0.1687934 0.2939623 0.94079489 0.0001389876
0.17101009 -0.29619825 -0.93969268 -0.16876581 0.29395726 0.94080138 0.00014452782
0.18124323 -0.29004967 -0.93969297 -0.17970254 0.28745732 0.94078445 0.00033010973
-0.19125493 -0.2835471 -0.93969095 0.18992476 0.28083637 0.94077599 0.00022914226
0.19125493 -0.2835471 -0.93969095 -0.18992519 0.28085354 0.9407708 0.00025723514
-0.20103368 -0.27669898 -0.93968874 0.20041923 0.27406761 0.94059515 0.00012545049
0.20103355 -0.27669907 -0.93968874 -0.20040368 0.27404052 0.9406063 0.00013566938
-0.21520983 -0.26576206 -0.93970287 0.21164282 0.26473916 0.94080848 0.00017894544
0.21520983 -0.26576206 -0.93970287 -0.21164456 0.26474002 0.94080782 0.00017868893
-0.22885542 -0.25416961 -0.93968928 0.22708777 0.25364849 0.94026256 0.00017761343
0.22885543 -0.25416961 -0.93968928 -0.22709394 0.25364619 0.94026172 0.00017559138
-0.23758671 -0.24602826 -0.93969065 0.2365876 0.24506551 0.94019639 0.00012667493
0.23758671 -0.24602826 -0.93969065 -0.23653832 0.24505308 0.94021201 0.00011328055
-0.24602824 -0.23758672 -0.93969065 0.24505574 0.23655383 0.94020736 0.00010934693
0.24602818 -0.23758677 -0.93969065 -0.24501993 0.23656785 0.94021314 0.0001158755
-0.25416964 -0.2288554 -0.93968928 0.25367185 0.22709388 0.94025475 0.00016839034
0.25416964 -0.22885537 -0.93968928 -0.25363258 0.22711103 0.94026119 0.00017562228
-0.26576206 -0.21520981 -0.93970287 0.2647891 0.21164675 0.94079345 0.00016419108
0.26576203 -0.21520984 -0.93970287 -0.26478249 0.21165624 0.94079322 0.00022678428
-0.27669907 -0.20103358 -0.93968874 0.27406424 0.20039672 0.94060081 0.00013091655
0.27669901 -0.20103364 -0.93968874 -0.27404064 0.20040435 0.94060612 0.0001356381
-0.2835471 -0.19125496 -0.93969095 0.28083715 0.18992949 0.94077486 0.0002287032
0.28354704 -0.19125502 -0.93969095 -0.28086928 0.1899471 0.94076163 0.00021743281
-0.2900497 -0.18124318 -0.93969297 0.28745371 0.17972443 0.94078135 0.00032606756
0.2900497 -0.18124318 -0.93969297 -0.28742209 0.17972867 0.94079018 0.00026857172
-0.29619822 -0.17101011 -0.93969268 0.29395425 0.16876452 0.94080251 0.00014497306
0.29619819 -0.17101018 -0.93969268 -0.29395041 0.16877629 0.94080168 0.00014331624
-0.30198598 -0.16056876 -0.93969268 0.3010436 0.1589911 0.94026303 4.0690571e-05
0.30198598 -0.16056876 -0.93969268 -0.29959249 0.16217686 0.94018245 0.00014862379
-0.3074058 -0.14993177 -0.93969268 0.30692554 0.14769503 0.94020361 5.7453864e-05
0.30740574 -0.14993183 -0.93969268 -0.30692893 0.14772327 0.94019806 5.243516e-05
-0.31245106 -0.13911213 -0.93969268 0.31193855 0.13693251 0.94018292 0.00010779564
0.31245106 -0.13911211 -0.93969268 -0.3119387 0.13694453 0.94018102 0.00010576953
-0.31711563 -0.12812306 -0.93969268 0.31653291 0.1259793 0.94017875 0.00010527657
0.31711566 -0.12812306 -0.93969268 -0.31653547 0.12598979 0.94017655 0.00010376184
-0.32139391 -0.11697781 -0.93969268 0.32064977 0.11484771 0.94020939 0.00020157333
0.32139388 -0.11697789 -0.93969268 -0.32071012 0.11486058 0.94018722 0.00018096264
-0.32528058 -0.10569006 -0.93969268 0.3235065 0.10698274 0.94015861 0.00022662114
0.32528058 -0.10569005 -0.93969268 -0.32353556 0.10699495 0.94014722 0.00021624418
-0.32877097 -0.094273537 -0.93969268 0.32695404 0.095606275 0.94019175 0.00018550413
0.32877094 -0.094273604 -0.93969268 -0.3269549 0.095613301 0.94019067 0.000184623
-0.33186078 -0.082742155 -0.93969268 0.33009809 0.084151343 0.94018817 0.00018405651
0.33186081 -0.08274214 -0.93969268 -0.33098397 0.080685474 0.94018054 3.7268055e-05
-0.33454627 -0.07111004 -0.93969268 0.33290219 0.072580814 0.94016385 0.00012762692
0.33454627 -0.071110032 -0.93969268 -0.33357432 0.069085792 0.940189 0.00015090514
-0.33682418 -0.059391208 -0.93969268 0.33579594 0.057406846 0.94018376 0.00024891147
0.33682418 -0.059391282 -0.93969268 -0.33517444 0.060907491 0.94018531 0.00014239646
-0.33869171 -0.047600023 -0.93969268 0.3371177 0.049181558 0.94017702 0.00017436396
0.33869171 -0.047600012 -0.93969268 -0.33708715 0.04917803 0.94018811 0.00018454333
-0.34014663 -0.03575084 -0.93969268 0.33865935 0.037385594 0.940166 0.00016310842
0.3401466 -0.035750914 -0.93969268 -0.33865666 0.037386164 0.94016695 0.00016346264
-0.34118712 -0.023858102 -0.93969268 0.33971778 0.025540818 0.9401806 0.00010626012
0.34118712 -0.023858095 -0.93969268 -0.33998576 0.021983793 0.94017351 3.2321619e-05
-0.3418119 -0.011936297 -0.93969268 0.34050113 0.010111102 0.94018978 0.00015163672
0.3418119 -0.011936369 -0.93969268 -0.34040856 0.013666712 0.94017828 3.5966983e-05
-0.34202024 -2.9900356e-08 -0.93969268 0.34074453 0.0017850393 0.94015425 0.00011912086
0.34202024 2.9900352e-08 -0.93969268 -0.34069782 -0.0017824386 0.94017112 6.5241118e-05
-0.3418119 0.011936318 -0.93969268 0.3404052 -0.013667255 0.94017953 0.00010839766
0.3418119 0.011936334 -0.93969268 -0.34038225 -0.013668383 0.94018787 8.1444319e-05
-0.34118712 0.023858124 -0.93969268 0.33968711 -0.025537483 0.94019175 0.00011640009
0.34118712 0.023858124 -0.93969268 -0.33969459 -0.025537742 0.94018906 7.9304744e-05
-0.34014663 0.035750862 -0.93969268 0.33865601 -0.03737957 0.94016743 0.00016378197
0.34014663 0.035750851 -0.93969268 -0.33903033 -0.033833921 0.94016677 0.00016291399
-0.33869171 0.047600046 -0.93969268 0.33760074 -0.045647595 0.94018197 0.00024718183
0.33869171 0.04760002 -0.93969268 -0.33711961 -0.049172681 0.94017673 0.00017450555
-0.33682418 0.05939123 -0.93969268 0.33514979 -0.060903009 0.94019437 0.0001517248
0.33682418 0.059391189 -0.93969268 -0.33579451 -0.057399083 0.94018483 0.00017769852
-0.3345463 0.07110998 -0.93969268 0.33362606 -0.069082759 0.94017088 0.00016868759
0.3345463 0.07111001 -0.93969268 -0.33359131 -0.069082245 0.94018316 0.00011262362
-0.33186078 0.082742169 -0.93969268 0.330102 -0.084144913 0.94018739 0.00014791444
0.33186078 0.082742184 -0.93969268 -0.33095568 -0.08068005 0.94019103 4.7360001e-05
-0.32877097 0.094273552 -0.93969268 0.32695299 -0.095619261 0.94019079 0.00018441901
0.32877097 0.094273552 -0.93969268 -0.32698727 -0.09563686 0.94017708 0.00017269701
-0.32528058 0.10569008 -0.93969268 0.32353166 -0.10698706 0.94014949 0.00021754894
0.32528058 0.10569007 -0.93969268 -0.32343584 -0.10698144 0.9401831 0.00024720145
-0.32139391 0.11697783 -0.93969268 0.32065243 -0.11485332 0.94020784 0.00020029716
0.32139391 0.1169778 -0.93969268 -0.32065189 -0.11484651 0.94020879 0.00020129047
-0.31711563 0.12812307 -0.93969268 0.31522599 -0.12929994 0.94016707 0.00016354401
0.31711566 0.12812304 -0.93969268 -0.31653297 -0.1259851 0.94017798 0.00010439604
-0.31245106 0.13911214 -0.93969268 0.31194481 -0.13695726 0.9401772 0.00010294101
0.31245103 0.13911217 -0.93969268 -0.31187913 -0.13695519 0.94019926 0.00012204659
-0.30740577 0.1499318 -0.93969268 0.30537742 -0.1509154 0.94019634 0.00011999578
0.30740577 0.1499318 -0.93969268 -0.3069298 -0.14768274 0.94020414 5.8977188e-05
-0.30198595 0.16056879 -0.93969268 0.29958519 -0.16217075 0.94018584 8.3701976e-05
0.30198595 0.16056879 -0.93969268 -0.29958031 -0.1621546 0.9401902 8.6700369e-05
-0.29619822 0.17101014 -0.93969268 0.29392847 -0.16877882 0.94080806 0.00015067146
0.29619822 0.17101012 -0.93969268 -0.29395786 -0.16879353 0.94079614 0.00013959133
-0.2900497 0.18124318 -0.93969297 0.28748512 -0.17974013 0.94076872 0.00031480059
0.2900497 0.18124317 -0.93969297 -0.2874209 -0.17970161 0.94079572 0.00027365593
-0.28354707 0.19125497 -0.93969095 0.28086746 -0.1899444 0.94076276 0.00021783906
0.2835471 0.19125493 -0.93969095 -0.2808392 -0.18992975 0.94077414 0.00022842301
-0.27669907 0.20103359 -0.93968874 0.27406713 -0.20039497 0.94060034 0.00013066942
0.27669904 0.20103362 -0.93968874 -0.27406549 -0.20040597 0.94059849 0.00012843244
-0.26576206 0.21520984 -0.93970287 0.26476276 -0.21161804 0.9408074 0.00017737434
0.26576203 0.21520984 -0.93970287 -0.2647841 -0.21165892 0.94079214 0.00022632815
-0.25416961 0.2288554 -0.93968928 0.25363347 -0.22708449 0.94026738 0.00018191089
0.25416961 0.2288554 -0.93968928 -0.25365967 -0.22707152 0.94026345 0.00017781148
-0.24602821 0.23758674 -0.93969065 0.24502915 -0.23656462 0.94021159 0.00011333831
0.24602824 0.23758672 -0.93969065 -0.24505378 -0.23657894 0.94020164 0.00010319044
-0.23758668 0.24602829 -0.93969065 0.23656648 -0.2450538 0.94020474 0.00013588292
0.23758672 0.24602824 -0.93969065 -0.23656963 -0.24504404 0.94020647 0.00010903428
-0.22885542 0.25416961 -0.93968928 0.22708106 -0.25364506 0.94026506 0.00017892143
0.22885537 0.25416967 -0.93968928 -0.2270969 -0.25364676 0.94026083 0.00017516538
-0.21520984 0.26576203 -0.93970287 0.21167053 -0.26478317 0.94078982 0.0002237609
0.21520984 0.26576206 -0.93970287 -0.21165577 -0.26475406 0.94080138 0.00017223833
-0.20103359 0.27669904 -0.93968874 0.20040567 -0.27406615 0.94059837 0.00012837074
0.20103364 0.27669904 -0.93968874 -0.20039849 -0.2740078 0.94061697 0.00014414718
-0.19125491 0.2835471 -0.93969095 0.18992534 -0.2808274 0.94077849 0.00026485138
0.19125493 0.2835471 -0.93969095 -0.18993758 -0.28082633 0.94077647 0.00026247717
-0.18124318 0.2900497 -0.93969297 0.17973694 -0.28745884 0.94077736 0.00032297653
-0.17101014 0.29619822 -0.93969268 0.16879486 -0.29395863 0.94079572 0.00013933648
0.17101011 0.29619825 -0.93969268 -0.16877185 -0.29392433 0.94081062 8.6135995e-05
0.18124318 0.2900497 -0.93969297 -0.17971361 -0.28742167 0.94079316 0.00027119365
-0.16056879 0.30198595 -0.93969268 0.16215518 -0.29958043 0.94019002 8.6668995e-05
-0.1499318 0.30740577 -0.93969268 0.14770287 -0.30694899 0.94019479 8.4136576e-05
0.1499318 0.30740577 -0.93969268 -0.14769605 -0.30692625 0.94020331 5.7280809e-05
0.16056879 0.30198595 -0.93969268 -0.16215584 -0.29958278 0.94018918 8.6294458e-05
-0.13911214 0.31245106 -0.93969268 0.13693058 -0.31194258 0.94018185 0.00010741229
-0.12812304 0.31711566 -0.93969268 0.12597913 -0.3165248 0.94018161 0.00010640236
0.12812306 0.31711566 -0.93969268 -0.12926266 -0.315153 0.94019663 0.00012118211
0.13911216 0.31245106 -0.93969268 -0.13695504 -0.31194082 0.94017887 0.0001036043
-0.1169778 0.32139391 -0.93969268 0.11484769 -0.3206524 0.94020844 0.00020107749
-0.10569005 0.32528058 -0.93969268 0.10698847 -0.32353485 0.94014829 0.00021704772
-0.094273552 0.32877097 -0.93969268 0.095613308 -0.3269549 0.94019073 0.000184623
0.094273567 0.32877097 -0.93969268 -0.095619678 -0.32695571 0.94018984 0.00018401306
0.10569006 0.32528058 -0.93969268 -0.1035715 -0.32455695 0.94017857 0.00017363945
0.11697781 0.32139391 -0.93969268 -0.11484079 -0.32064918 0.94021046 0.00020249575
-0.082742177 0.33186078 -0.93969268 0.084163278 -0.3300992 0.94018674 0.00018289151
-0.071109988 0.3345463 -0.93969268 0.069088578 -0.3336288 0.94016945 0.00016782057
-0.059391197 0.33682418 -0.93969268 0.057406358 -0.33579582 0.94018388 0.00024898388
-0.047600009 0.33869171 -0.93969268 0.049178801 -0.33711475 0.94017822 0.00017496213
0.04760002 0.33869171 -0.93969268 -0.049179487 -0.3370848 0.94018894 0.00018482436
0.059391208 0.33682418 -0.93969268 -0.057399891 -0.33576304 0.94019586 0.00018766049
0.071109995 0.3345463 -0.93969268 -0.069093965 -0.33357936 0.94018668 0.00011330879
0.082742184 0.33186078 -0.93969268 -0.084138438 -0.33007994 0.94019574 0.00012091868
-0.035750866 0.34014663 -0.93969268 0.037382629 -0.33865348 0.94016826 0.0001640297
-0.023858128 0.34118712 -0.93969268 0.025537245 -0.33972603 0.94017774 0.0001050116
-0.011936323 0.3418119 -0.93969268 0.013668341 -0.34038913 0.94018531 0.00014679674
-1.4950178e-08 0.34202024 -0.93969268 0.0017830955 -0.34072116 0.94016266 9.2235859e-05
0.011936334 0.3418119 -0.93969268 -0.013668074 -0.34040239 0.94018054 0.00010882798
0.023858137 0.34118712 -0.93969268 -0.025533706 -0.33968386 0.940193 0.00011697094
0.035750836 0.34014663 -0.93969268 -0.033842053 -0.3390767 0.94014984 0.00021643177
-0.052135237 -0.37096107 -0.92718387 0.052623216 0.37441945 0.92576504 0.00026870469
-0.039157018 -0.3725546 -0.92718387 0.039530896 0.37606874 0.92574817 0.00025329884
-0.02613127 -0.37369418 -0.92718387 0.026379794 0.37725675 0.92573297 0.00024044166
-0.013073687 -0.37437853 -0.92718387 0.01319581 0.37790141 0.92575175 0.0002605583
4.4671404e-09 -0.37460673 -0.92718387 -1.2488766e-07 0.378149 0.92574471 0.00025406858
0.013073516 -0.37437853 -0.92718387 -0.013197254 0.37793437 0.92573833 0.00024909299
0.02613128 -0.37369418 -0.92718387 -0.026377143 0.37725669 0.92573303 0.00024051237
0.039157029 -0.3725546 -0.92718387 -0.039525662 0.37609076 0.92573947 0.00024409771
